21 21 20 24 23 15 18 26 22 33 26 17 29 26 13 30 14 13 18 39 15 37 23 60 20 20 29 18 22 20 35 23 23 26 25 26 21 28 41 25 24 24 15 18 17 26 32 21 27 18 14 20 21 24 23 18 23 31 26 30 32 27 34 25 18 31 18 24 20 25 34 22 18 25 31 14 16 20 38 40 22 23 28 49 28 26 16 20 20 22 26 20 22 28 20 21 50 24 22 16 25 13 21 22 22 30 17 30 24 18 20 26 35 23 16 13 47 23 20 19 30 35 13 16 14 13 22 25 19 26 22 35 34 14 17 15 29 31 32 21 20 21 24 30 19 23 25 23 34 20 13 22 24 18 18 16 21 23 21 19 20 29 23 17 18 25 28 22 21 17 24 29 23 23 35 23 24 21 21 17 24 23 29 22 33 18 18 24 27 24 25 51 34 29 28 26 23 27 28 17 18 20 19 21 22 45 19 22 28 30 25 21 22 11 16 18 29 19 44 18 23 25 22 27 29 28 18 40 30 50 33 42 22 21 16 10 16 20 13 42 20 15 27 21 19 21 15 30 23 28 20 22 17 16 24 19 20 17 26 19 19 22 15 19 17 22 34 36 20 20 17 48 26 25 56 21 14 20 20 19 23 35 18 20 19 22 19 24 23 18 15 26 15 16 25 19 19 24 17 18 25 36 21 30 18 24 13 20 18 19 19 24 18 18 22 38 20 28 16 19 21 27 23 17 24 26 25 21 25 37 41 16 24 22 26 27 45 21 26 18 23 19 28 14 25 20 20 23 34 25 16 14 12 21 19 19 22 25 30 19 24 11 24 27 31 27 23 18 30 23 35 17 16 24 28 30 20 22 25 45 38 22 23 16 22 23 25 20 17 22 19 25 23 6 51 31 19 23 23 25 19 17 19 25 26 24 23 14 23 23 20 20 23 22 18 24 29 21 27 19 31 24 23 34 44 20 11 16 17 18 19 21 25 29 16 17 20 26 8 29 14 26 24 21 21 31 20 21 13 16 26 18 47 12 20 35 27 20 26 16 29 32 27 18 19 25 18 20 20 21 32 16 32 20 20 40 36 25 17 20 17 17 24 22 17 29 29 28 44 18 22 31 30 17 26 31 17 29 23 29
38 24 35 27 41 18 29 43 31 51 33 19 44 34 16 40 22 17 23 61 17 46 27 127 25 25 41 33 30 34 69 36 27 49 31 42 29 45 77 44 25 35 14 24 21 25 57 30 35 24 18 31 37 30 37 21 57 69 38 48 56 32 64 34 28 42 22 31 33 28 45 29 19 32 48 23 24 26 68 85 28 22 50 103 45 41 28 40 38 26 40 35 24 40 38 19 92 27 44 25 43 24 25 24 33 47 18 57 28 23 29 50 57 47 24 26 83 29 29 22 39 53 22 23 20 27 41 30 27 44 43 68 37 19 18 28 48 54 58 28 41 25 38 46 22 30 30 32 66 22 19 37 22 21 26 35 26 24 35 25 26 58 43 25 20 27 30 24 36 20 36 48 53 33 58 31 39 26 28 20 41 26 48 30 80 32 26 34 38 31 45 95 49 60 48 53 26 25 34 25 21 24 23 30 31 95 27 33 42 44 54 33 42 19 21 26 34 30 80 28 37 29 32 30 40 52 31 77 53 84 66 71 32 29 25 14 18 24 23 80 27 27 49 23 30 25 23 44 30 43 37 25 25 26 29 24 32 23 30 19 21 24 22 31 30 43 48 55 36 27 27 79 47 40 107 40 29 22 34 28 25 51 27 22 25 26 32 40 31 19 17 56 17 28 32 23 33 46 18 25 35 53 27 40 23 30 23 29 25 26 26 26 25 22 29 72 25 56 22 21 27 53 46 20 29 36 36 31 37 65 76 32 43 19 48 34 100 29 25 26 30 23 30 22 31 29 22 28 63 46 19 30 15 37 21 31 29 50 72 25 30 21 31 40 61 36 22 25 52 20 54 24 21 35 36 40 27 42 48 76 62 30 30 32 33 23 43 37 29 24 21 22 37 4 92 54 30 36 28 37 28 28 26 53 38 32 38 22 35 33 31 23 29 28 22 33 31 23 36 24 57 39 42 50 88 27 18 25 26 20 27 28 35 37 31 24 25 29 18 37 24 46 45 30 26 60 28 35 20 30 39 26 101 16 23 63 25 34 52 17 34 54 31 28 30 48 28 38 27 23 36 22 56 29 31 75 72 38 21 21 23 30 29 18 24 43 46 50 83 32 45 34 50 19 31 51 24 38 29 55
70 36 66 49 65 22 31 70 64 76 47 19 76 49 20 60 31 29 28 117 18 83 41 193 41 31 76 50 53 41 107 50 21 94 38 72 34 78 130 71 37 69 17 31 19 32 114 38 83 31 29 67 73 38 59 19 105 146 65 62 99 54 118 52 52 70 29 41 60 38 72 37 24 54 52 35 29 40 122 145 32 24 92 215 80 73 54 52 57 30 70 70 27 59 66 18 187 57 80 22 66 22 28 33 54 76 19 97 30 29 47 89 94 90 25 45 134 42 56 20 53 108 44 36 19 52 60 40 25 69 58 104 63 21 18 34 63 84 95 52 84 35 47 66 29 57 46 64 150 31 33 56 23 33 32 52 27 39 50 38 46 95 71 49 25 36 54 29 52 25 65 86 98 58 117 44 57 23 39 24 82 39 104 33 125 38 24 68 61 41 88 168 61 152 87 85 26 25 36 39 27 35 52 45 60 204 48 38 67 96 99 69 80 41 25 32 75 28 150 22 46 33 52 44 76 79 56 145 77 105 117 87 57 42 47 17 28 29 41 119 32 51 100 25 58 41 26 67 46 60 70 47 33 23 46 30 52 25 51 24 27 34 33 45 18 92 82 94 47 33 35 144 98 89 222 52 49 29 46 40 47 83 42 42 29 35 40 61 42 25 15 109 20 41 62 30 47 93 30 26 53 88 47 82 24 40 41 41 49 31 24 32 27 25 41 126 29 80 29 24 35 98 83 24 32 40 51 62 51 122 153 30 60 27 84 47 207 55 35 26 58 34 37 28 42 49 29 24 126 72 39 36 24 35 32 35 29 79 133 31 42 23 29 60 123 64 31 21 91 18 81 19 27 57 55 68 33 73 68 140 113 47 52 66 54 47 66 51 48 31 25 30 60 15 197 94 41 54 44 43 51 64 32 90 62 49 87 26 54 60 47 39 50 46 20 43 47 26 61 36 87 72 75 82 144 24 26 35 27 36 23 36 38 65 46 35 26 49 18 61 41 71 78 49 31 114 46 44 27 36 63 35 203 25 32 119 38 58 109 25 65 84 44 44 46 92 39 71 37 24 43 29 103 53 45 145 150 56 26 23 27 35 46 20 43 72 68 90 135 40 85 42 107 27 49 63 32 46 36 103
138 73 123 97 128 21 31 122 124 142 64 19 135 86 23 93 41 51 49 197 23 146 58 291 53 38 156 84 94 68 164 91 36 178 76 121 50 155 251 132 73 123 19 28 22 42 209 58 150 36 44 142 118 42 99 25 193 261 92 95 183 98 225 97 106 136 24 55 102 56 132 66 28 88 76 50 47 79 204 252 42 35 168 404 153 127 129 80 115 42 127 140 46 99 144 23 323 127 124 23 146 30 49 39 98 134 22 216 49 46 83 182 146 161 27 75 246 68 85 21 82 225 95 51 32 94 126 66 29 162 125 186 105 19 17 53 112 122 184 85 156 43 87 101 46 107 73 107 279 36 75 90 22 60 52 106 37 53 93 69 96 163 120 102 30 54 69 35 80 40 113 181 187 112 208 92 69 23 65 29 150 59 213 52 231 66 22 102 105 49 182 288 96 358 154 156 38 40 67 58 28 49 97 77 89 399 89 56 122 170 189 152 125 92 29 53 129 39 276 28 65 54 82 60 154 172 118 315 148 150 201 130 100 57 74 25 45 27 75 179 35 66 174 23 95 67 27 131 92 94 117 97 35 42 75 53 88 40 86 25 42 61 49 76 17 195 138 189 91 47 55 258 165 178 364 83 87 31 83 69 77 155 62 77 42 64 64 105 84 33 17 207 19 85 136 42 72 191 43 28 91 168 76 134 27 54 68 57 76 47 34 56 40 34 54 210 46 146 51 16 52 174 153 29 51 65 80 114 108 193 302 45 102 42 144 74 394 82 49 27 105 49 60 28 69 103 54 31 220 113 67 54 45 67 52 30 58 168 231 50 68 29 49 99 244 134 50 27 187 30 142 32 41 112 95 138 55 123 77 242 196 84 97 139 102 73 117 70 94 39 35 48 126 33 374 178 40 109 77 89 76 135 36 153 117 68 163 32 70 76 75 57 78 70 28 78 83 33 87 73 155 129 163 179 242 36 51 50 27 67 34 53 56 118 77 50 44 71 27 118 53 111 141 92 51 231 77 86 28 57 83 57 332 55 49 188 62 98 208 24 108 113 84 77 90 155 56 164 38 26 50 51 192 90 75 263 277 107 25 25 54 60 76 25 83 138 128 171 222 68 135 62 228 45 89 112 52 78 61 215
277 126 232 191 250 22 38 232 245 261 103 21 200 151 57 166 77 98 80 386 28 252 96 477 84 64 281 128 166 113 252 145 59 325 153 225 79 260 446 235 127 243 23 34 39 69 409 81 257 53 85 249 211 79 183 16 374 487 141 170 319 166 417 173 208 260 34 81 195 90 267 89 38 130 135 77 79 136 334 399 73 50 254 777 237 228 251 153 198 76 199 265 85 166 269 42 577 248 265 24 285 37 99 41 185 226 27 396 90 82 176 370 282 269 30 151 440 137 138 31 173 444 171 67 73 177 257 89 29 339 234 307 177 27 28 93 210 186 361 144 273 71 169 176 93 160 126 185 509 56 149 146 33 101 65 193 45 89 184 102 202 267 222 189 44 67 129 59 164 45 204 381 286 208 369 193 113 34 106 48 292 111 432 96 369 123 27 146 147 81 335 499 170 782 240 267 75 55 111 98 36 114 180 130 160 815 176 86 196 325 361 271 217 189 41 92 245 68 473 31 103 101 138 108 287 308 205 685 286 255 322 196 191 93 163 48 76 40 155 266 49 111 330 27 160 95 40 275 203 172 200 206 58 79 130 106 153 73 139 28 62 89 97 161 18 396 244 380 178 88 104 461 301 337 676 140 151 39 152 112 150 239 121 152 78 117 123 190 162 57 15 367 22 141 266 74 126 353 73 50 162 254 156 228 45 101 135 111 123 88 62 97 65 44 92 375 93 290 94 20 84 281 311 33 98 103 163 248 226 300 550 80 193 56 286 118 796 146 98 29 214 102 105 30 112 213 114 31 392 190 120 96 77 109 84 52 115 328 338 97 119 37 81 179 457 280 92 45 388 55 263 52 49 243 176 260 105 228 94 469 363 150 202 326 169 120 219 126 168 73 69 76 235 57 670 343 62 191 132 176 112 259 80 306 200 121 275 48 102 148 167 127 136 119 45 140 138 72 127 143 267 224 320 341 381 54 83 69 44 138 61 97 105 196 133 105 72 84 25 178 82 207 226 143 101 394 123 149 46 99 129 93 647 96 70 329 96 183 357 28 238 197 136 120 174 272 94 326 71 26 81 94 347 163 136 399 515 198 39 25 97 97 112 31 177 295 214 349 346 106 216 119 406 86 158 192 75 133 98 427
483 243 409 396 552 23 65 429 489 469 193 18 372 281 122 265 153 190 146 733 23 460 150 804 140 121 517 241 298 197 438 280 104 624 319 408 152 506 738 427 247 488 19 50 69 123 805 149 414 97 149 424 364 124 299 23 660 825 213 363 532 266 750 328 388 485 42 179 345 128 503 139 56 231 300 107 141 209 574 693 117 102 392 1478 385 389 500 238 420 139 324 446 182 296 568 94 1060 496 496 25 551 41 212 60 316 437 37 760 160 127 350 731 515 421 46 282 787 267 230 46 321 811 306 111 171 278 482 139 37 700 438 539 316 39 48 182 393 315 711 263 493 105 308 278 170 260 227 325 890 92 267 240 56 203 105 340 69 163 361 172 398 440 429 313 73 127 202 97 316 66 415 791 468 370 720 349 187 64 162 101 506 204 843 156 555 278 43 248 296 138 565 878 318 1555 428 430 154 113 233 190 72 183 373 292 265 1535 355 149 366 647 667 514 401 372 78 169 448 117 825 51 217 206 258 182 551 597 356 1415 540 447 531 316 375 157 331 90 124 64 313 493 94 198 575 35 285 152 68 508 438 314 316 405 96 163 204 201 305 131 212 33 115 144 192 309 19 758 455 763 381 167 219 863 614 552 1213 258 243 50 255 134 310 408 254 280 138 212 203 368 275 112 13 646 23 269 504 113 217 724 128 113 317 444 331 377 72 221 273 192 246 178 135 187 94 62 178 650 203 504 165 21 157 483 607 44 192 196 288 470 456 535 957 158 343 83 534 213 1498 251 188 47 418 192 175 51 169 424 229 50 606 293 202 156 160 173 168 65 238 675 555 198 208 65 137 333 886 568 161 74 824 117 518 101 70 476 315 506 194 398 100 862 621 266 407 661 297 204 394 218 331 108 118 121 461 91 1196 653 97 349 239 371 183 461 169 641 359 195 428 71 178 265 287 246 272 251 88 244 284 124 198 261 485 419 657 605 610 89 143 107 72 248 105 135 223 340 225 199 122 133 27 299 135 398 381 204 196 647 217 285 87 216 160 176 1236 186 113 613 184 347 656 45 424 382 240 203 350 435 168 680 138 24 141 198 651 333 247 624 966 371 76 21 172 181 205 49 349 565 377 742 599 201 349 184 726 163 298 364 116 185 193 816
786 418 761 731 1104 25 144 753 989 894 367 20 702 487 268 529 304 344 271 1449 31 851 244 1305 232 207 974 449 503 333 785 526 183 1164 579 750 296 982 1255 757 474 963 15 85 133 209 1418 289 661 187 257 732 698 207 543 33 1164 1394 353 717 883 426 1262 537 762 902 67 378 575 183 927 207 103 436 651 140 245 331 1075 1332 207 200 666 2757 623 711 1001 441 797 266 492 794 397 576 1093 203 1919 962 893 38 1076 48 417 85 578 868 56 1443 283 197 682 1388 943 635 71 525 1355 534 377 55 595 1578 593 193 346 454 880 224 55 1499 817 922 525 61 85 310 818 572 1387 552 849 201 564 488 320 426 484 539 1429 161 518 362 103 337 189 582 123 368 629 286 803 766 758 530 125 214 327 128 606 109 816 1534 760 603 1393 719 345 122 276 207 898 379 1668 258 777 588 70 433 522 246 989 1663 605 3013 760 688 268 203 468 388 156 330 747 571 425 2861 675 288 631 1297 1212 1023 723 671 146 324 744 234 1419 55 452 396 496 346 981 1150 587 2777 952 773 879 550 700 293 684 197 199 118 638 904 167 335 1029 58 523 247 103 899 869 596 505 742 149 369 337 351 614 248 355 52 235 244 367 578 27 1433 824 1510 784 291 393 1621 1127 972 2055 516 429 85 463 209 623 715 438 459 242 379 319 627 427 213 14 1138 28 466 989 187 439 1464 218 208 568 731 617 607 127 456 515 369 425 297 289 361 121 108 323 1133 392 979 262 21 275 902 1164 52 367 401 574 926 903 1006 1617 287 671 123 968 404 2833 434 401 87 838 342 357 83 343 827 461 77 1009 459 308 259 308 284 373 118 459 1213 924 409 392 122 254 636 1592 1113 317 139 1599 209 889 178 102 994 555 939 357 670 133 1647 1105 520 767 1270 536 370 666 380 634 196 233 230 848 189 2163 1299 176 687 443 669 269 802 326 1268 680 338 651 144 331 504 522 427 519 486 153 481 513 237 371 448 870 862 1260 1015 987 145 280 162 132 440 218 213 443 620 388 362 261 212 37 578 239 726 676 301 352 1146 401 537 178 410 203 327 2277 372 200 1107 343 653 1271 85 737 723 412 358 659 771 345 1203 264 35 263 335 1169 655 443 1011 1803 695 150 20 279 320 366 106 619 1108 613 1495 1033 328 529 336 1300 303 552 624 167 340 321 1487
1368 761 1405 1331 2202 38 259 1331 1970 1633 710 21 1310 960 519 1056 609 568 491 2778 30 1589 421 2220 397 361 1820 982 903 579 1411 968 307 2153 1101 1367 565 1814 2178 1455 918 1873 38 174 200 415 2673 530 1085 332 492 1251 1321 369 1035 55 2000 2419 564 1435 1438 743 2260 900 1501 1626 119 739 1057 311 1645 329 177 792 1258 186 413 534 1885 2586 372 381 1120 4987 1073 1308 1939 832 1408 451 858 1374 737 1073 2108 416 3344 1795 1530 57 2132 50 812 156 958 1669 97 2680 512 367 1221 2635 1692 994 118 960 2386 1071 644 69 1143 3111 1014 378 729 773 1659 395 96 2924 1507 1631 952 111 163 544 1580 1054 2652 1122 1470 351 1050 830 577 717 972 867 2345 339 923 591 193 588 321 1018 210 732 1077 540 1527 1208 1406 883 211 365 548 251 1126 184 1566 2803 1376 959 2596 1399 622 199 460 394 1555 690 3098 445 1093 1093 138 761 996 433 1831 3064 1176 5458 1434 1149 413 408 871 733 313 544 1483 1164 716 5247 1352 531 1123 2456 2247 1972 1219 1279 277 668 1258 452 2480 81 883 818 911 622 1864 2157 972 5007 1827 1334 1491 977 1269 543 1310 374 369 230 1260 1666 312 597 1833 93 949 490 179 1575 1633 1034 921 1392 249 737 563 604 1202 461 626 101 466 442 695 1055 39 2628 1425 2953 1541 517 695 2939 2087 1636 3454 929 832 143 784 305 1279 1250 809 733 469 613 546 1049 736 416 25 1930 50 825 1761 359 828 2767 389 410 1088 1206 1175 978 245 842 948 708 777 499 595 688 192 195 540 1908 672 1745 460 30 463 1599 2155 75 688 796 1014 1700 1656 1844 2640 585 1257 192 1857 762 5169 757 797 156 1626 606 677 142 740 1525 932 143 1600 758 520 482 610 487 709 195 802 2207 1634 772 672 222 482 1065 2955 2117 562 250 3060 408 1581 304 183 1898 989 1794 665 1103 201 2955 1849 982 1496 2237 931 640 1161 674 1140 333 405 450 1452 355 3846 2516 275 1317 817 1283 426 1408 560 2486 1222 639 1052 256 604 962 1045 703 1060 908 272 865 881 404 704 790 1513 1639 2344 1775 1552 275 474 264 218 719 380 349 892 1103 764 680 544 380 65 1097 359 1263 1221 476 676 2115 735 972 334 755 285 592 4151 707 395 1976 645 1180 2287 160 1373 1317 725 580 1259 1372 693 2148 474 63 521 596 2039 1215 845 1648 3434 1363 286 23 444 608 677 224 1152 2110 1067 2967 1738 522 805 564 2363 600 1030 1168 242 603 605 2485
2382 1307 2518 2506 4211 68 432 2193 3688 2897 1311 30 2413 1825 1029 2040 1108 1008 945 5224 45 2914 780 3815 685 617 3321 1986 1534 1026 2417 1799 534 3778 2065 2504 1064 3260 3714 2702 1724 3451 78 342 350 823 4895 971 1957 613 913 2161 2379 640 1971 86 3493 4119 932 2823 2476 1265 3925 1514 2835 2887 226 1450 1872 560 2754 588 346 1473 2356 295 732 841 3285 4794 611 801 1894 8445 1872 2341 3707 1584 2599 873 1532 2295 1361 1882 3986 839 5722 3140 2418 74 3853 84 1526 281 1560 2986 161 4606 928 645 2196 4965 2842 1519 183 1868 4276 2080 1148 95 2115 5608 1725 702 1438 1262 3068 716 165 5433 2731 3039 1762 209 315 1055 3092 2040 4879 2171 2575 651 1851 1410 1017 1240 1879 1495 3792 604 1773 974 360 1113 592 1752 368 1475 1730 949 2660 1934 2555 1423 378 673 1002 485 2125 323 2979 5029 2417 1494 4797 2638 1080 383 868 743 2676 1223 5666 819 1453 2022 237 1272 1763 797 3203 5630 2224 9273 2700 1951 704 775 1495 1351 614 975 2868 2237 1244 8930 2674 949 2043 4531 4072 3675 2113 2379 536 1353 2260 849 4287 122 1682 1563 1734 1141 3386 3973 1789 8645 3295 2333 2645 1733 2249 1073 2542 707 690 458 2332 3002 606 971 3261 176 1622 930 334 2684 3037 1894 1593 2623 473 1438 916 1004 2282 804 1095 206 949 865 1361 1881 66 4775 2354 5453 2891 877 1186 5431 3721 2638 5620 1678 1570 197 1353 531 2483 2097 1435 1239 892 1146 903 1679 1288 819 52 3266 106 1417 3074 640 1684 4998 682 749 2030 1977 2238 1696 449 1509 1712 1331 1488 779 1188 1268 290 362 941 3407 1185 3168 803 57 785 2826 3875 125 1311 1504 1870 3091 2995 3385 4329 1032 2288 370 3494 1379 8990 1336 1537 298 3078 1150 1230 284 1508 2695 1874 253 2549 1180 963 881 1132 844 1233 355 1389 4043 2889 1537 1167 353 908 1780 5350 3890 1015 404 5552 782 2765 520 361 3584 1754 3238 1159 1843 342 5311 3277 1828 2771 4019 1518 1028 2038 1249 2042 594 726 797 2433 611 6615 4515 484 2387 1576 2328 678 2417 1001 4629 2280 1270 1850 455 1106 1798 1888 1230 2028 1669 494 1613 1640 761 1306 1386 2679 3093 4245 2961 2585 555 868 433 438 1154 690 596 1647 1952 1477 1206 1122 694 129 2047 593 2112 2203 783 1274 3663 1448 1787 663 1337 427 1135 7235 1269 776 3648 1170 2159 3982 368 2464 2296 1359 955 2239 2455 1383 3626 867 109 1011 1063 3507 2183 1542 2768 6198 2576 576 36 789 1189 1270 450 2157 3961 1880 5490 2983 876 1321 1045 4220 1149 1794 2208 374 1098 1064 4089
4012 2310 4474 4657 7352 131 788 3527 6544 5051 2487 67 4396 3381 1936 3816 2187 1806 1743 8919 87 5202 1421 6504 1254 1072 5895 3760 2588 1812 4060 3135 879 6597 3942 4297 2018 5869 6276 5055 3246 6111 155 685 603 1612 8399 1783 3530 1138 1596 3688 4338 1244 3502 139 5865 6777 1537 5171 4111 2234 6714 2654 5199 4969 447 2730 3323 1021 4617 1047 629 2582 4320 461 1419 1418 5554 8230 1058 1542 3218 13106 3381 3968 6486 2921 4812 1615 2695 3858 2495 3197 7011 1583 9344 5185 3712 132 6699 132 2710 477 2658 5263 261 7671 1754 1248 4049 8606 4784 2338 322 3505 7099 3895 2019 133 3852 9455 2928 1457 2701 1984 5608 1296 307 9286 4724 5289 3132 424 637 1996 5613 3809 8217 4032 4458 1159 3200 2448 1624 2096 3386 2544 6149 1138 3435 1592 639 2048 1008 2993 688 2797 2787 1732 4688 3302 4631 2368 718 1206 1841 959 3800 555 5242 8547 4200 2369 8205 4820 1933 681 1620 1353 4441 2097 9656 1456 2059 3583 409 2105 3024 1473 5597 9584 4162 14215 4866 3342 1219 1457 2714 2594 1197 1798 5232 4008 2084 13795 4952 1713 3664 7826 7170 6457 3554 4263 1024 2658 3985 1525 7218 175 3127 2989 3264 2122 6049 6868 3049 13277 5730 4113 4551 3066 3914 1970 4572 1338 1236 848 4258 5235 1127 1665 5538 340 2750 1786 556 4756 5396 3340 2779 4649 965 2796 1544 1768 4177 1399 1844 371 1795 1822 2599 3261 134 8087 3853 9200 5137 1463 2091 9333 6461 4259 8781 2893 2877 301 2329 944 4495 3673 2644 2165 1700 2066 1538 2683 2228 1561 79 5628 204 2445 5361 1215 3096 8680 1160 1450 3734 3215 3899 2898 767 2679 3218 2438 2772 1240 2344 2323 450 719 1591 5594 2113 5449 1422 108 1387 4835 6595 220 2483 2864 3388 5373 5389 5852 6840 1843 4225 722 6126 2488 14108 2322 2687 553 5527 2140 2119 574 3038 4695 3557 448 4034 1935 1753 1598 2114 1500 2043 719 2516 7220 5003 2881 1905 637 1672 2825 9038 6733 1804 773 9598 1395 4769 923 669 6243 3110 5632 2099 3053 549 8842 5549 3404 5112 6783 2550 1702 3602 2234 3554 1116 1373 1467 3952 1080 10809 7869 833 4206 2846 4172 1056 4106 1818 7906 4006 2378 3029 861 2023 3515 3513 2036 3865 3154 878 2790 2904 1488 2369 2381 4377 5655 7271 4979 4234 1042 1556 797 835 1912 1296 1028 3055 3454 2664 2020 2040 1266 240 3695 1059 3420 4056 1331 2247 6411 2705 3261 1190 2233 727 2088 11613 2227 1429 6522 2096 4029 6800 717 4505 3896 2524 1512 3932 4377 2610 6094 1517 220 2014 1855 5746 3681 2833 4573 10402 4674 1105 68 1320 2085 2343 851 3885 6989 3297 9264 5068 1612 2222 1831 7290 2177 3086 4051 664 1985 1930 6597
6692 3928 7446 8025 11665 218 1413 5455 10879 8365 4661 112 7506 5978 3446 6752 3947 3259 3147 13910 153 8803 2686 10614 2200 1817 9776 6975 4399 3206 6782 5334 1424 10280 7229 7220 3751 9716 10054 8770 5829 10283 293 1337 1004 3044 13286 3194 5878 2055 2945 6307 7639 2272 6365 272 9537 10709 2598 8945 6985 3816 10805 4644 8927 8370 875 5033 5775 1798 7398 1836 1184 4611 7434 781 2687 2420 9019 13082 1704 2991 5216 18224 5999 6626 10567 5208 8131 3059 4550 6487 4490 5271 11298 2892 13905 8391 5801 249 10967 212 4887 807 4295 8740 414 11845 3162 2136 7029 13332 7708 3655 546 6271 11582 6860 3523 207 6765 14586 4858 2700 4907 3103 9478 2366 523 14084 8020 9025 5326 840 1255 3694 9621 6568 12902 7021 7331 1968 5342 4341 2683 3467 5817 4366 9656 1992 6166 2619 1127 3705 1775 5227 1208 5095 4613 3220 7648 5469 7967 3873 1351 2177 3185 1844 6629 950 8847 13322 6932 3846 13125 8262 3471 1294 3126 2528 7221 3596 14628 2653 3050 6215 729 3419 4976 2871 9268 14767 7385 19088 8450 5772 2236 2760 4667 4644 2202 3233 8938 7133 3424 18937 8650 3073 6284 12381 11772 10646 5821 7458 1963 4956 6725 2727 11587 248 5468 5360 5841 3708 10020 10961 5346 18615 9247 6823 7541 5406 6564 3710 7955 2433 2127 1493 7470 8661 2101 2817 8858 705 4470 3454 978 7836 9141 5783 4516 7824 1798 5273 2593 3082 7370 2515 3059 670 3237 3585 4758 5447 263 12703 6133 14219 8798 2451 3639 14367 10503 6914 13231 4987 5077 510 4087 1803 7593 6186 4799 3729 3017 3619 2594 4321 3754 2809 131 9378 373 3936 8811 2206 5505 13764 1850 2672 6648 5217 6710 4922 1337 4678 5671 4336 5019 1913 4209 4200 709 1332 2548 9163 3620 9253 2482 204 2422 7914 10583 403 4489 5140 5917 8947 9049 9618 10705 3091 7273 1418 10140 4274 19299 3981 4783 938 9303 3987 3580 1066 5632 7808 6417 832 6595 3334 3153 2830 3951 2759 3258 1373 4403 11759 8326 5168 3120 1151 3141 4472 14002 11021 3098 1418 14902 2540 7888 1649 1287 10287 5145 9063 3795 5182 966 13844 9186 6001 8745 10905 4378 2726 6134 4007 6065 2029 2546 2708 6462 1780 16027 12531 1491 7107 5089 6913 1861 6645 3274 12309 6799 4290 5013 1615 3522 6244 6295 3441 6893 5726 1591 4768 5232 2697 4151 4043 7034 9606 11635 8097 6972 1965 2864 1493 1674 3174 2356 1705 5422 5851 4746 3292 3573 2146 388 6429 1829 5450 6968 2363 3929 10161 5041 5932 2164 3711 1308 3830 16809 3799 2623 10635 3718 7066 10873 1490 7881 6484 4402 2498 6735 7549 4779 9889 2525 466 3879 3286 9187 6084 5002 7592 15838 8139 2019 138 2455 3903 3999 1686 6717 11492 5537 14380 8186 2809 3721 3392 11717 3891 5175 7137 1193 3461 3523 10292
10633 6685 11625 12603 16668 372 2621 8660 16184 12955 7961 231 11767 10225 5790 11205 6929 5696 5517 19233 292 13509 4881 16016 3831 3092 14879 11604 7461 5816 11039 8720 2376 14932 11867 11405 6636 15018 15094 13883 9669 15449 537 2509 1779 5631 18655 5708 9489 3714 5262 9966 12175 3996 10701 505 14299 15514 4311 13910 11186 6229 15752 7926 13900 13213 1555 8702 9371 3179 11301 3225 2110 7737 11787 1301 4900 4049 13733 18263 2818 5425 8444 22885 10000 10536 15486 8689 12620 5489 7553 10171 7526 8373 16630 5260 18782 12690 8987 404 15967 352 8038 1392 6943 13334 683 16844 5532 3796 11665 18781 11821 5718 985 10347 16911 11195 6048 362 10688 19880 7962 4992 8560 4819 14587 4337 992 19182 12435 13738 8567 1572 2288 6385 14730 10677 17804 10938 11364 3244 8478 7352 4240 5632 9564 7090 14184 3466 10081 4244 1999 6466 2986 8582 1938 8763 7383 5741 11857 8895 12718 6228 2483 3946 5388 3472 10656 1607 13712 18349 10951 6283 18384 13114 5973 2382 5838 4528 11096 5962 19972 4732 4776 10036 1319 5569 8131 5306 14284 20067 12056 23497 13249 9422 4011 5117 7782 7889 3969 5572 13728 11628 5704 23276 13996 5197 10178 17465 17264 15551 9117 12276 3554 8471 10651 4897 16917 416 9114 9098 9760 6466 15397 16012 8909 23319 13764 10988 11781 9168 10572 6507 12707 4345 3794 2673 11979 13129 3794 4599 13243 1291 7055 6391 1719 12334 13909 9569 7186 12118 3296 9120 4413 5340 11966 4310 5003 1206 5483 6562 8186 8541 485 17857 9582 19341 13781 4111 6059 19620 15701 10628 18399 8241 8504 886 7137 3334 11921 9948 8114 6237 4984 6265 4297 7008 6107 5000 212 14446 684 6404 13412 3980 9405 19308 2929 4850 10960 8283 10741 8033 2280 7977 9536 7429 8630 2946 7117 7183 1154 2466 4256 13922 6042 14304 4209 408 4226 12234 15604 763 7506 8489 9776 13718 13934 14634 15787 5360 11631 2734 15271 7112 23825 6780 7956 1672 14183 6972 5798 1995 9637 12451 10557 1526 10113 5854 5604 4687 6956 4860 5015 2497 7476 16924 12812 8616 4886 2020 5557 6955 19362 15971 5325 2497 20537 4629 12495 2944 2387 15606 8296 13810 6676 8490 1642 19369 13841 9909 13832 16137 7192 4410 10012 6935 9850 3607 4528 4942 10217 2943 21302 17778 2706 11588 8651 11030 3368 10574 5775 17159 10848 7303 8120 3136 5945 10377 10518 5834 11147 9669 2796 7903 8596 4920 6979 6976 10841 14554 16545 12313 11113 3794 5128 2734 3091 5315 4129 2848 9003 9544 8218 5141 6131 3596 656 10495 3156 8458 11030 4227 6577 15089 8757 9937 3924 6134 2326 6649 21444 6492 4746 15634 6155 11457 15631 2990 12633 10481 7415 4113 11039 11987 8251 14745 4180 993 6943 5655 13619 9656 8366 11861 21193 12867 3662 221 4293 6891 6653 3200 10802 16872 9162 19736 12735 4777 6212 5878 16852 6788 8438 11703 2142 5854 6167 15028
15420 10878 16371 17909 21489 606 4792 12849 21214 18232 12700 410 16701 15482 9444 16538 11389 9625 9040 23695 524 18740 8278 20960 6698 5193 20446 16666 11873 9601 16634 13346 4013 19766 17639 16554 11066 20386 20755 19316 14460 20291 926 4630 3078 9542 23467 9548 14130 6633 9001 14801 17421 6717 16098 943 19378 20415 7098 19113 16267 9610 21116 12378 19165 18929 2876 13670 14215 5463 16189 5532 3940 12261 16913 2267 8460 6625 19118 22993 4712 9448 12686 26843 15386 15729 20455 13489 17620 9296 11786 15055 11881 12583 21571 9027 23212 17845 13280 714 20896 612 12278 2407 10933 18749 1102 21590 9253 6330 17249 23495 16770 9025 1639 15506 22170 16485 9737 603 15702 24584 12438 8544 13271 7317 19694 7171 1755 23471 17557 18972 12927 2915 4029 10568 19757 15586 22524 15579 16606 5314 13054 11771 6449 8867 14600 11141 19620 5852 15153 6914 3581 10653 4870 13231 3252 13501 11601 9444 16886 13381 18034 9742 4406 6905 9013 6300 15567 2457 19095 23021 15959 9950 23225 18507 9896 4352 9889 7820 15765 9720 24439 7879 7549 14672 2481 8842 12837 9101 19760 24408 17390 26998 18572 14353 6954 8812 12179 12722 6812 9098 19014 17055 9110 27186 19468 8730 15042 21940 22368 20382 13940 17513 6394 13021 15597 8161 22335 741 13784 14297 14659 10379 20731 21142 13900 27028 18382 15942 16466 14045 15611 10666 18041 7619 6520 4743 17387 18301 6726 7211 18094 2380 10730 10816 3014 17925 19151 14710 11102 17274 5795 14069 7279 8909 17245 7479 7916 1980 8893 10913 12751 12975 920 22576 14278 23793 18993 6784 9794 23742 20740 15321 23447 12696 12975 1465 11157 5979 17022 15075 12762 10077 8058 10328 6919 10826 9736 8448 380 20021 1219 10032 18731 7035 14343 23849 4670 8501 16474 12561 15828 12412 3950 12458 14386 11700 13295 4532 11252 11537 1947 4347 6834 19566 9695 19986 7037 872 7244 17500 20532 1301 11777 12972 14956 18994 19128 19756 20994 9017 16791 4889 20165 11269 27346 10767 12466 2816 19235 11440 9280 3613 14587 17586 15703 2699 14615 9651 9480 7577 11445 8392 7692 4317 11794 21791 18110 13424 7636 3662 9292 10537 23819 20997 8722 4330 24988 7923 17807 4999 4394 20916 12612 19054 10963 13109 2911 23977 18987 14909 19165 21485 11233 6829 14942 11069 14686 6275 7807 8396 15510 4866 25568 22409 4766 17180 13302 16102 5844 15472 9756 21782 15855 11709 12437 5721 9763 15578 15699 9434 16377 14587 5015 12331 13265 8424 11017 11493 15736 19766 21274 17326 16024 6911 8737 4848 5444 8531 6940 4698 13658 14737 12927 7979 9723 5847 1056 15477 5300 12832 15907 7210 10496 19766 13764 15194 6693 9712 4078 10911 25335 10611 8116 20459 9860 16556 20810 5585 18038 15437 11846 6849 16328 17055 12770 19938 6766 2009 11487 9272 18394 14545 12944 17078 25167 18431 6496 441 7126 11283 10706 5927 15995 21818 13780 23881 18137 7900 10044 9909 21958 11024 12791 17137 3823 9582 10269 19770
20614 16423 21396 22445 25281 1055 8284 18149 25411 23134 18035 762 21207 21122 14106 21603 16663 14725 13885 27152 952 23689 13009 25258 10900 8257 24572 21438 17568 14445 21911 18410 7038 23780 22663 21601 16621 24874 25964 23993 19341 24444 1506 8038 5069 14591 27261 14601 19320 10938 13774 19905 22108 10747 21322 1716 23988 24760 11143 23487 21177 14143 25526 18142 23603 24148 5021 18843 19385 9059 21028 8997 6902 17568 21418 4005 13261 10527 24067 26655 7774 14706 17691 30118 20606 20940 24455 18465 22128 14421 17044 20190 16675 17850 25646 14045 26934 22769 18582 1253 24566 1071 17235 4062 15699 23590 1794 25642 14251 10022 22415 27061 21500 13363 2780 20663 26511 21291 14637 1046 20764 28325 17651 13443 18411 10950 24030 11413 3058 26973 22209 23500 17825 5171 7095 15764 24032 20285 26170 20189 21826 8373 18116 16840 9934 13720 19529 16276 24143 9664 20111 10908 6248 15694 7902 18736 5246 18389 16644 14314 21818 18477 23039 14629 7572 11316 14099 10683 20434 3727 24040 26752 21069 14962 27059 23241 14770 7578 15186 12504 20520 14819 27844 12267 11748 20027 4520 13532 18052 14196 24790 27630 22260 30171 23219 20084 11237 13893 17264 18177 11074 13860 23448 21921 13668 30339 24215 13484 20198 25719 26048 24507 19280 22414 10501 18198 20968 12901 26482 1338 18971 19594 19920 15544 25264 25296 19414 29938 22631 21047 21370 19408 20852 15714 22886 11995 10818 7896 22090 23071 10958 11026 22319 4361 15370 16046 5162 23118 23460 19987 15870 22074 9682 19441 11635 13697 22099 11963 12188 3396 13530 16063 18092 18293 1811 26189 19320 27632 23468 10804 14549 27272 25231 20052 27460 17866 18370 2390 16113 9858 21713 20538 18036 15000 12276 15611 10887 15754 14328 13279 700 24500 2152 14639 23323 11512 19597 27367 7462 13343 21710 17492 21130 17498 6786 17768 19654 17036 18359 6833 15973 16691 3401 7265 10687 24028 14471 24672 10982 1732 11738 22485 25052 2228 16854 18085 20226 23564 23630 24580 25218 13848 21810 8343 24540 16297 30449 15902 17912 4656 23632 16800 13615 6335 19556 22524 20939 4868 19579 14767 14461 11976 16731 13498 11595 7370 16766 26111 22705 18850 11638 6358 14578 15214 27454 25129 12962 7174 28269 12557 22781 8345 7497 25305 17778 23550 16221 18317 5100 27522 23430 20224 24023 25545 16371 10427 20134 16314 19680 10225 12237 13252 21005 7947 28622 26199 8059 22562 18560 21187 9523 20560 15034 25339 20817 16919 17530 9754 14620 20560 20845 14272 21632 19749 8502 17445 18323 13262 16189 17161 21121 24019 25030 22214 21057 11455 13485 8230 9261 13138 11198 7435 18877 20065 18217 12082 14514 9430 1838 20679 8443 17992 20669 11454 15301 23986 19109 20626 10713 14275 6860 16679 28496 15667 12681 24411 14414 21281 24799 9604 23104 20655 17120 10840 21792 22206 17944 24301 10755 3734 16957 13995 23052 19624 17868 21823 28268 23270 10840 821 11272 16942 15944 9878 20812 25935 19104 26941 23313 12295 15076 14703 26041 16042 17935 22207 6675 14658 15378 24222
25164 21445 25638 26367 28626 1708 12911 23031 28352 27102 23242 1346 24901 25900 19363 25564 21720 19982 19451 29851 1721 27753 18049 28598 16079 12883 27981 25103 23378 19558 26025 23694 11317 27382 26234 25775 21788 28387 29775 27445 23672 27665 2384 12918 7983 19932 30235 20025 23905 16012 18891 24160 26134 15806 25456 3004 27336 28006 16086 27064 25472 19019 28914 23263 27341 28138 8515 23449 23690 13908 25185 14042 11105 22678 25123 6824 18729 15473 27620 29725 12365 20276 22689 32867 25067 25267 27836 23230 25927 19723 22461 24231 21478 23003 28773 19453 29935 26580 23379 2079 27803 1987 21875 6714 21032 26922 2984 29002 19558 14796 26756 29851 25788 18514 4713 25082 29720 25319 20200 1845 25104 31177 22875 18780 22664 15670 27634 16417 5242 29869 26162 27257 22588 8732 11360 20748 27677 24628 29219 24080 26221 12615 23214 22152 14759 18924 23818 21380 27760 14997 24143 16245 10136 20720 11874 23479 8533 22833 21764 19408 25827 23200 26994 19999 11928 16577 19644 15940 24631 5747 27636 29798 25195 20239 30363 26946 19939 12186 20506 18018 24689 20122 30520 17840 16737 25020 7877 18602 22825 19732 28599 30073 26071 32560 26888 25136 16454 18914 22070 23082 16215 19048 26915 26000 18796 32984 28073 19133 24614 28918 29417 28186 23872 26003 15947 22643 25230 18334 29851 2448 23611 24032 24384 20968 28593 28749 24121 32625 26166 25387 25551 24255 25226 20798 26554 17316 16291 12607 25746 26637 15875 15503 25893 7553 20943 21047 8459 27205 27082 24621 20761 26119 14772 23953 17078 18803 25708 17230 17271 5520 18664 21126 23074 23155 3334 29115 23924 30545 27396 15532 19658 30145 28512 24446 30375 22713 23000 3865 21407 14892 25415 25089 22669 20321 17312 20801 15787 21054 19241 18697 1333 28011 3970 19657 27308 16909 24358 30677 11451 19125 25861 21975 25599 22445 10842 22539 24487 22086 23093 10319 20674 21784 5922 11610 15562 27906 19312 28467 16190 3363 16787 26831 28615 3901 21883 22761 24754 27074 27306 27995 28189 19407 25965 13196 27633 21158 33000 20989 22914 7738 27175 21833 18673 10330 24071 26747 25660 8262 23821 20206 19700 17377 21786 18929 16492 11973 21730 29332 26579 23743 16626 10316 20118 20113 30191 28330 18105 11148 31094 17968 26498 12773 11720 28543 22430 27419 21390 22994 8432 30181 27046 24364 27672 28781 21439 15174 24141 21537 23852 15438 17486 18874 25897 12517 31280 29135 12788 26617 23132 25620 14527 24508 20386 28538 24942 21964 22433 14787 20007 24899 25041 19443 25927 23966 13259 22620 23167 18308 21190 22483 25531 27264 27737 26135 25040 17085 18825 12904 14232 18614 16349 11289 23553 24213 23006 17031 19430 14450 3190 24833 12786 22984 24627 16814 20307 27277 23632 24959 15803 19561 10973 22198 30783 20802 17861 27580 19091 25199 28257 14602 26911 24899 22437 16059 25986 26488 22652 28049 16034 6676 22316 19059 26937 24403 22602 25834 31062 26702 15889 1500 16424 22110 21416 14814 25032 28860 24003 29820 27184 17709 20966 19718 29324 20837 22804 26302 11064 19968 20690 27868
28809 25749 29043 29300 31212 2996 18227 27140 31024 30538 26535 2577 28311 29416 24200 28723 25658 24618 23765 32248 3136 30691 22668 31544 21274 18381 30567 28220 28084 24063 29335 27907 16438 30328 29202 29030 26208 31226 32482 30448 27192 30583 3937 18546 11992 24225 32848 24900 27273 20691 23431 27728 29350 20975 28697 5128 30329 30851 20974 30106 28626 23460 31749 26873 30078 31395 13342 26906 27099 19521 28516 19429 16191 26841 28449 11107 23417 20303 30852 32308 17731 24959 26821 35198 28480 28914 30508 26869 28948 23849 26768 27758 25520 27401 31434 24249 32272 29777 27499 3475 30483 3402 25845 10593 25600 29894 4898 31554 24064 19891 30031 32578 29079 23410 7617 28537 32247 28276 24676 3209 28586 33612 26894 23428 26008 20595 30723 21453 8869 32589 29085 30037 26554 13425 16429 24983 30364 27827 31661 27269 29453 17527 26956 26234 20158 24312 27564 25492 30558 20431 27690 21651 15320 25409 16878 27054 12994 26419 25780 23766 28770 27156 30200 24777 17459 22021 24509 21233 27803 8905 30717 32394 28297 24778 32867 29914 24248 17805 24982 23118 28007 24432 32871 23079 22233 28805 12615 23302 26450 24127 31369 32667 28938 34697 29715 28558 21875 23408 25991 27255 21430 23637 29796 29256 23435 34993 30764 23959 27904 31645 31825 30713 27549 29289 21440 26428 28467 23495 32561 4566 27196 27558 28007 25406 31501 31461 27504 34767 29038 28929 28850 28059 28621 24802 29531 22367 21939 18038 28361 29631 20654 20315 28837 12069 25934 25238 12860 30186 30183 28120 24736 29249 20241 27688 22817 23284 28613 22135 22144 9034 23244 25333 26536 27210 5912 31744 27655 32791 30883 20568 24077 32832 31135 27754 32660 26429 26836 6238 25410 20126 28864 28677 26624 24842 22127 24746 20978 25403 23760 23237 2469 31025 7222 24207 30170 21537 28070 33279 16519 23975 29141 25895 29189 26576 15932 26195 27977 26073 26931 15226 24725 26043 9647 16687 20506 30843 23767 31501 21353 6191 22144 29975 31473 6612 26321 26591 28111 29990 30154 31070 31005 24158 29111 18279 30683 25156 34883 25041 26680 12014 30055 25915 23117 15360 27430 29610 29234 12633 27576 25019 24023 22544 25826 23804 21193 17605 25988 32027 29589 27484 21808 15097 24523 24624 32951 31353 23183 15809 33442 22952 29667 18172 16931 31329 26573 30507 25903 26775 12830 32423 29812 27574 30612 31119 25349 20233 27588 25803 27172 20701 22607 23920 29251 17887 33472 31527 18407 29650 27152 28849 19946 27738 24831 31377 28496 26166 26263 19929 24259 28096 28319 23565 29238 27450 18813 26588 27348 23173 25245 26713 28729 30057 30382 29229 28436 22097 23623 18068 19445 23615 21377 16070 27213 27617 27108 22245 23867 19939 5314 28242 17881 26888 27832 22031 24534 30460 27235 28439 21038 23869 16260 27054 33039 25345 22779 30391 23382 28186 30943 19832 30307 28240 26558 21244 29341 29908 26427 30560 21200 10870 26777 23840 30077 27816 26552 29222 33530 29756 20911 2650 21652 26401 25562 19992 28326 31525 27818 32327 30192 22504 25680 23967 31621 25090 26616 29919 16661 24543 25122 30688
31894 29427 31806 31865 33778 5224 22962 29865 33475 32989 29411 4765 31141 32172 27548 31194 28607 28407 27721 34189 5524 33574 26605 34048 25437 23623 33265 30738 31463 27498 32028 31308 21445 32819 31549 31912 29340 33768 34798 33108 30464 33088 6478 23599 16747 27647 34895 28378 30513 24849 27263 30651 32205 25239 31359 8337 32988 33023 25156 32791 31293 27167 33979 29925 32735 33731 18799 29878 30119 24543 31122 24136 21292 29973 31290 16317 27501 24722 33550 34602 22829 28599 29949 37027 31171 31851 32912 30183 31392 27109 29938 30286 28581 30895 33749 27641 34439 32343 30510 5873 32778 5561 28893 15578 28821 32535 7795 33899 28009 24416 32984 34545 32150 27291 11861 31370 34426 30694 28212 5461 31366 35466 30259 27238 28720 25021 33154 25793 13872 34559 31387 32521 29724 18828 21355 28190 33106 30329 33741 30253 32045 22296 30098 29224 24676 28034 30531 28871 32891 24888 30789 26111 20473 28567 21754 29876 18309 29528 28855 27237 31167 29796 32668 28430 22797 26299 28262 25261 30749 13394 33146 34768 30904 28603 34849 31915 27739 22976 28333 27047 30691 27636 34939 27334 26542 32125 17890 27141 29616 27900 33837 34919 31491 36419 32299 30708 26463 27118 29469 30215 25536 27079 32393 32013 27089 36825 33304 27601 31044 34194 34211 33150 30421 31800 25743 29408 31031 27216 34839 7909 30436 30445 30656 28792 33843 34013 30349 36397 31680 31699 31661 30902 31426 28110 32065 26391 26691 22907 31114 32346 24690 24616 31617 17394 29638 28535 18060 32736 32572 30935 28027 31634 24773 30292 27641 27003 31205 26243 26322 13712 27183 28345 29517 30230 9808 33702 30465 35288 33348 24935 27653 34921 33442 30954 34689 29513 30076 9815 28594 24425 31056 31321 29668 28792 26271 28441 25495 28898 27405 27332 4496 33334 11843 27829 32739 25509 30997 35553 21911 27448 31713 29067 32056 29865 21273 29041 30950 29337 29934 20704 28040 29296 14710 21576 24861 33103 27256 33869 25935 10295 26257 32496 33584 10831 29920 29567 31021 32513 32645 33793 33097 28121 31673 23104 33156 28512 36531 28447 29909 17313 32694 28935 26761 20395 30306 32171 32122 17613 30481 28364 27486 26629 29244 27620 24985 22907 29314 34170 32031 30798 25865 20021 27999 28430 34901 33872 26925 20591 35194 26768 32113 23066 21940 33567 29646 33399 29421 29844 17868 34716 32160 30349 33255 33373 28807 24903 30580 29095 29967 25137 27014 27723 32046 23000 35498 33931 23561 32458 30129 31494 24451 30411 28260 33545 31293 29087 29713 24259 27898 30968 31260 27188 31862 30230 23890 30032 30333 27242 28550 30081 31223 32406 32699 32055 31041 26192 27417 23095 23793 27823 25579 21128 29896 30329 30437 26696 27202 24606 8403 31012 22605 29810 30765 26504 28074 32920 29872 30900 25431 27618 21147 30207 35065 28662 26541 33399 27177 30996 33661 23944 32719 31597 29304 25266 32270 32451 29555 33005 25870 15877 30282 27830 32695 30902 29992 31943 35424 32170 24888 4662 26207 29560 28860 24138 31127 33587 30770 34265 32858 26291 29327 27195 34034 28688 29924 32280 22180 28296 28738 33006
34019 32205 34150 34101 35808 8621 26878 32479 35546 35319 31808 8383 33165 34685 30405 33640 31573 30985 30824 36275 9370 35489 29679 36255 28708 27649 35397 33226 33764 30288 34331 33876 25729 34997 33800 34266 31872 35547 36497 35060 32983 34980 10125 27290 21833 30467 36736 31546 32819 27904 30319 33182 34299 28511 33850 12773 35126 35059 28608 35037 33492 30229 35917 32417 34436 35757 23787 32561 32542 28312 33940 27646 25550 32483 33644 21501 30763 28123 35580 36407 26807 31434 32768 38126 33598 34040 35107 32846 33956 30096 32437 32449 31745 33752 35799 30760 36487 34496 33094 9483 34861 9063 31578 20864 31517 34759 11564 35884 30977 28318 34898 36461 34495 30209 17042 33901 36214 33125 30854 9033 33761 36827 32795 30174 31221 28515 35238 29210 19401 36784 33896 34600 32581 23507 25366 30930 35250 32725 35582 32831 34043 26343 32673 31782 28120 31042 33188 31635 34741 28541 33129 29490 24805 31595 25423 32226 23325 32094 31484 30103 33645 32415 34708 31629 27174 29543 31185 28719 32811 18175 35129 36327 33167 31597 36821 34077 30803 26815 30912 30153 33019 30670 36571 30363 29897 34528 22419 30415 32376 30835 35712 36562 33672 37803 34429 32973 29526 30013 32056 32959 28505 29981 34835 34567 30310 38210 35266 30427 33535 36195 36053 35224 32836 34064 29260 32365 33588 30164 36608 12745 32803 32726 32811 31847 35621 35831 32450 37877 33944 34184 33967 33303 33654 31164 34461 29467 30017 27179 33408 34390 27660 27814 33829 22202 32143 31268 22741 34951 34976 33558 30735 34162 28712 32751 31360 29951 33719 29353 29723 19029 30153 31377 32029 32652 14732 35534 33281 36984 35355 28337 30520 36662 35307 33474 36465 31962 32518 14877 31119 28047 33039 33650 32457 31860 29738 31200 28817 31386 30649 30636 7541 35231 17661 30820 35099 28783 33416 37181 26266 30841 34015 31648 34490 32477 25573 31770 33326 31670 32373 25510 31025 31827 20196 25379 28191 35247 30172 35925 29109 15388 29486 34318 35708 16228 32918 32176 33657 34584 34768 35679 35213 30978 34163 26771 35082 31303 37875 30844 32660 22159 34769 31730 29573 24660 32725 34235 34599 22125 32916 31296 30158 29921 32036 30359 28381 26955 32125 36151 34312 33187 29113 24298 30965 31480 36550 35933 29951 24957 36859 29853 34613 26933 25898 35607 32096 35388 31982 32232 22273 36241 34649 32676 35389 35243 31213 28611 32810 31763 32680 28562 30039 30373 34242 26780 37092 35766 27106 34595 32370 33759 28097 32577 30719 35090 33518 31868 32325 27387 30372 33558 33355 30104 34119 32815 27590 32587 32985 30061 31045 32283 33540 34370 34670 34258 33724 28871 30331 26758 27787 30939 28966 25502 32395 32701 33010 29922 29998 28324 12667 33243 26499 32169 33252 29545 30937 35002 32864 33426 28702 30707 25190 32910 36805 31189 29362 35487 30497 33301 35797 27296 34862 33598 32106 28398 34604 34689 32089 35138 29083 20808 32936 30995 34733 33190 32371 34220 37072 34518 28019 7759 29923 32546 31406 27699 33516 35405 33194 36051 34803 29329 32115 29991 35971 31368 32345 34567 26486 31012 31534 35433
35899 34471 36073 36150 37185 13140 30017 34440 37087 37068 34078 13280 35271 36633 32861 35578 33904 33656 33335 37652 14518 36842 32130 37754 31295 31003 37130 34821 35663 32590 36207 35909 29248 36767 35734 36105 33958 37031 37674 36540 35113 36666 15093 30264 26234 32774 37953 33809 35185 30621 32823 35109 36449 31042 35555 17823 37032 36789 31323 36863 35459 32614 37163 34490 36436 37131 27553 34667 34601 31558 35806 30358 28795 34780 35693 25875 33234 30877 37297 38179 30009 33996 34823 39148 35628 35881 36719 35024 36019 32474 34469 34764 34323 35938 37208 33059 37647 36400 35086 14311 36511 13970 33841 25242 33991 36465 16257 37402 33218 31006 36495 37800 36336 32690 22248 35644 37550 35028 33297 13792 35735 38275 34687 32557 33159 31286 36990 31969 24295 37879 35991 36207 34749 27458 28528 33169 36852 35063 37211 34889 35714 29431 34518 34034 31123 33422 34969 33940 36715 31320 35129 32137 28363 33814 28827 34805 27292 34293 33780 32707 35450 34559 36560 33798 30162 32325 33612 31376 34933 23199 36952 37739 35269 34199 37943 35879 33363 30011 33314 32803 35181 33034 38119 32903 32706 36564 26229 32811 34362 33586 37330 38091 35643 38848 36266 35189 32433 32551 34440 35085 31280 32651 36639 36388 32682 38973 37083 33050 35354 37677 37376 36942 35071 36135 31724 34555 35385 32437 37649 18479 34798 34973 34829 34066 37074 37285 34634 38994 35836 36075 36217 35203 35416 33477 36500 32148 32774 29978 35218 36262 30536 30450 35581 25993 34585 33768 26449 36681 36620 35534 33218 35807 31701 34667 34147 32545 35637 31973 32363 24239 32687 33779 33972 34687 19896 36907 35420 38033 37433 31048 33168 37809 37118 35538 37836 34246 34410 20242 33381 30828 35266 35738 34816 34192 32544 33606 31699 33792 33345 33416 11861 37128 23020 33408 36647 31184 35268 38132 29629 33143 35969 34273 36098 34637 28966 34290 35555 33728 34752 29044 33257 34066 24564 28486 31015 37018 32626 37197 31787 20515 32060 36391 37158 21422 35125 34115 35603 36411 36405 37186 36742 33562 36045 29866 36860 33566 38806 33412 34933 26456 36224 34214 31915 27973 34845 36141 36347 25834 34972 33808 32669 32578 34401 33060 31109 30360 34279 37528 36240 35354 31655 27653 33468 34209 37839 37553 32310 28677 37989 32462 36571 30195 29113 37341 34263 36996 34418 34656 26070 37273 36389 35035 36898 36763 33689 31497 34971 34184 34767 31353 33197 32654 35929 29683 38371 37382 30020 36508 34523 35557 30695 34675 33055 36635 35828 34059 34426 30262 32820 35475 35513 32561 36180 34929 30485 34745 34984 32633 33499 34445 35501 36463 36540 36454 35707 31496 32742 29833 30721 33297 31578 28890 34575 34826 34804 32541 32292 31112 17880 35420 29355 34272 35270 32497 33379 36752 34913 35132 31362 33040 28244 34698 37979 33784 31892 37282 33048 35326 37622 30244 36843 35861 34200 30955 36359 36390 34246 36451 31921 24853 35186 33370 36513 35518 34667 35876 38169 36001 30690 12327 32768 34866 33425 30640 35497 36710 35114 37577 36505 32142 34335 32447 37351 33859 34681 36171 30098 33518 33734 37190
37766 36267 37429 37693 38422 18249 32645 36283 38307 38356 35683 19071 36933 38039 34880 37105 35970 35400 35405 38949 19829 38359 34704 38733 33832 33187 38313 36809 37121 34668 37465 37286 32015 38127 37250 37628 35941 38316 38963 38108 36762 37996 20429 32639 29907 34820 39128 35505 36838 33105 34961 36923 37784 33135 37045 22607 38175 37866 33779 38187 36945 34917 38263 36253 37773 38134 30299 36701 36676 34197 37073 32838 31833 36496 37107 29256 35208 33129 38365 38668 32792 35803 36567 39583 37116 37669 38060 36517 37222 34938 36445 36522 36028 37282 38365 35157 38751 37932 36925 19420 38053 19236 35462 28643 35598 38037 21070 38739 35448 33681 37765 38919 37816 34882 26536 37427 38714 36581 35276 19337 37231 38944 36466 35052 35222 33351 38099 34213 27893 38954 37478 37575 36544 30546 31385 35244 38137 36569 38482 36573 37071 32128 36760 36118 33221 35333 36929 35754 38052 33753 36968 34299 31171 35721 31389 36437 30206 36072 35881 34840 37051 36277 37663 36096 32972 34465 35600 33338 36653 27108 38031 38971 36681 36273 38931 37537 35283 32478 35474 35190 36740 34842 39256 34702 34893 37624 29483 34793 36357 35491 38502 39074 37118 39927 37736 36677 34477 34700 36259 37039 33523 34589 38111 38101 34742 39384 38365 35154 37041 38594 38585 37893 36707 37630 33833 36763 37192 34731 38724 23558 36574 36401 36589 35798 38255 38593 36355 39520 37301 37526 37678 36670 37238 35395 37435 34295 34813 32674 36961 37786 33107 32996 37071 28940 36335 35865 29543 38001 38122 37600 35297 37561 34075 36598 36244 34660 37484 34390 34479 28039 34854 35744 35737 36337 24587 38414 37153 39453 38478 33372 35320 38808 38373 36993 38822 36083 36364 24973 35292 33093 36993 37408 36722 36024 34734 35678 33935 35696 35415 35390 17340 38591 27200 35126 38017 33317 36893 38858 32222 35780 37571 35774 37347 36400 32009 36130 37124 35653 36531 31755 35487 36014 28219 30916 33220 38276 34794 38186 34206 24674 34602 37924 38560 25501 36715 35929 37528 37791 38202 38402 38095 35805 37527 32627 38292 35688 39582 35401 36432 29581 37916 35936 34349 30669 36710 37745 37666 29022 36836 35789 34793 34562 36197 34866 33320 33014 36079 38715 37693 37077 34052 30512 35464 35981 38856 38395 34564 31540 38557 34491 37873 32871 31781 38793 36006 38363 36249 36411 29218 38505 37948 36641 38099 38231 35566 34111 36389 35821 36436 33783 35204 34592 37230 32168 39197 38558 32295 37978 36357 37058 33362 36366 35196 38201 37149 35843 36578 32903 34737 36978 37069 34576 37652 36906 33041 36478 36688 34899 35291 36307 37205 37689 37936 37515 37468 33932 34718 32231 33397 35570 33706 31576 36347 36335 36800 34649 34489 33684 23198 37033 31909 36282 36870 34779 35244 38157 36426 37045 33794 35156 30703 36706 39180 35787 34284 38372 35043 36840 38676 32628 38140 37248 36400 33246 37633 37682 36259 37834 33669 28324 37026 35513 38103 37292 36348 37545 39088 37687 33108 17864 35134 36359 35460 33144 37096 38233 36814 38772 37781 34272 36322 34620 38710 35870 36441 37815 32383 35623 35863 38441
38816 37755 38632 38591 38944 23253 34730 37982 38981 39401 37080 23984 38328 38486 36520 38171 37560 37246 37123 39538 24308 39232 36247 39450 35822 35573 39357 38134 38097 36388 38589 38385 34219 38551 38331 38692 37288 39153 39644 38972 37897 39042 24882 34685 32635 36749 39645 37131 38144 35313 36913 37936 38986 35108 38254 26638 39339 39049 35739 39240 38167 36353 39257 37667 38679 39389 32951 37623 38050 35974 38210 34607 34112 37778 38473 32002 36909 35361 39225 39398 34949 37409 37967 39907 38260 38684 39106 38053 38350 36644 37586 38055 37304 38464 39554 36754 39579 38601 38240 23813 39035 23914 37057 31499 37070 39004 25564 39502 37086 35869 38847 39584 38856 36433 29916 38543 39578 37991 36787 24177 38585 39895 37992 36679 36802 35424 39269 35638 30503 39772 38709 38899 38095 32976 33272 36559 38934 38054 39272 38000 38549 34361 38122 37367 35297 37041 38494 37085 39217 35717 38092 35971 33564 37126 33847 37721 32670 37512 37190 36718 38411 37611 38703 37325 35127 36281 37315 35186 37979 30171 38767 39792 37906 37828 39495 38623 36821 34570 36761 36889 38141 36739 40003 36666 36575 38643 32080 36562 37843 36854 39353 39750 38238 40176 38673 38036 36450 36731 37660 38099 35834 36124 38999 39043 36522 39930 39113 36728 38338 39487 39734 39137 37789 38726 35630 37947 38676 36473 39485 27156 37852 38087 37966 37117 39318 39361 37825 40154 38590 38420 38737 38088 38033 37246 38926 35940 36618 34862 38215 38698 35077 34995 38272 31850 37885 37012 32233 38849 39025 38563 36995 38417 36069 37560 37377 36559 38433 36261 36160 30997 36613 37396 37242 37677 28100 39375 38108 39811 39626 35505 36829 39941 39124 38228 39667 37368 37805 28533 36998 35280 38396 38486 38011 37559 36612 37568 35783 37384 36924 36962 22700 39243 30403 36752 38951 35378 38571 39666 34553 37185 38322 37360 38678 37793 34333 37483 38382 37201 37770 34092 36998 37427 31077 33300 35363 39235 36674 39062 36145 27803 36100 38797 39523 28602 38049 37445 38673 38829 39080 39384 39162 37572 38789 34413 39150 37052 39804 37304 37846 32183 39095 37729 36178 33041 37582 38439 38631 31779 37992 36995 36350 36346 37620 36751 35421 35272 37413 39424 38804 38370 35770 32816 36993 37490 39565 39171 36192 33962 39695 36362 39038 34970 34056 39154 37327 39360 37690 37613 31823 39583 39069 38123 38846 39016 37033 35893 37715 37425 37784 35822 36949 36113 38508 34374 39985 39328 34165 38868 37726 38197 35138 37700 36627 38756 38534 37523 37762 35022 36528 38190 38503 36634 38829 38211 34879 37390 37950 36467 36994 37724 38466 38647 38809 38528 38588 35857 36647 34235 35403 37111 35688 33886 37432 37527 37941 36297 36167 35751 27336 38283 34243 37838 38232 36610 37040 38718 37800 38562 35798 36829 33098 37938 39577 37351 36253 39197 36669 38024 39450 34888 38818 38293 37940 35189 39115 38855 37665 38790 35463 31065 38215 36759 38841 38274 37788 38569 39743 38595 35311 22458 36766 37704 37137 35311 38328 38883 38355 39631 39008 36027 37722 36381 39263 37238 37848 38479 34538 37202 37278 39227
39496 38618 39246 39580 39826 27095 36440 39224 39786 39809 38294 27991 38993 39338 37930 38921 38852 38386 38287 40011 27763 39567 37680 40087 37310 37252 39986 38878 39055 38040 39433 39372 36250 39412 39358 39531 38574 39904 40302 39661 39089 39715 28343 36283 34767 37953 40253 38321 38980 37026 38231 39001 39679 36767 39470 29945 39853 39783 37023 39823 39285 37618 40074 38787 39604 39896 34809 38641 38812 37720 39389 36481 36354 38883 39050 34115 38193 37068 39616 39975 36709 38602 38879 40547 38837 39037 39594 38646 39163 38046 38714 39182 38693 39303 39894 38204 39968 39386 39081 27459 39668 27478 37981 33805 38373 39696 29017 40039 38459 37568 39716 40053 39616 37850 32598 39378 40263 39154 38046 27686 39332 40445 39218 37775 37950 36603 39757 37148 32963 40217 39594 39685 38790 35003 35502 38085 39651 38946 40029 38990 39344 35775 39158 38450 36747 38460 39211 38484 39934 37143 39197 37634 35561 38434 35754 38748 34693 38228 38477 38073 39163 39032 39590 38565 36974 37731 38354 37204 39067 32824 39434 39942 38960 38990 39935 39050 38077 36333 38415 38017 38872 38234 40364 37624 37816 39368 34220 37690 38755 38243 39843 39998 39238 40611 39390 39115 37874 38038 38421 39373 37528 37551 39681 39716 37706 40376 39862 38231 39157 40273 40461 39604 39038 39640 37274 38958 39568 37733 40072 30492 39047 38637 38844 38629 39691 39939 38807 40348 39255 39225 39696 39021 38991 38319 39825 37749 37988 36656 39174 39521 36786 36635 39091 34071 38670 38322 34301 40012 39684 39634 38121 39159 37437 38647 38609 37978 39100 37735 38005 33415 37874 38360 38376 39013 30820 40095 39224 40326 40037 37391 38166 39976 39815 39395 40008 38782 38943 31236 37950 36747 39323 39088 38765 38517 37989 38193 37337 38528 38043 38180 27155 39563 32992 38173 39575 36907 39488 40261 36548 38479 39482 38443 39212 38711 36234 38825 39208 38416 38664 36161 38140 38503 33280 35054 36639 40051 37910 39885 37505 30643 37571 39499 40006 31402 38905 38666 39264 39676 39685 40175 39700 38443 39549 36326 39742 38447 40761 38182 38699 34587 39621 38535 37432 34969 38583 39385 39332 33780 39115 38324 37708 37501 38524 38118 37005 37010 38443 40016 39689 39050 37439 34641 38445 38592 39881 39729 37631 35976 40265 37817 39851 36804 36186 40057 38354 39919 38735 38830 33916 40028 39823 39026 39588 39902 38291 37258 38868 38474 39012 37167 38243 37685 39308 36095 40169 39780 35937 39370 38724 38961 36996 38810 38085 39418 39259 38644 38880 36669 38005 39270 39526 38156 39672 39183 36677 38842 38763 37818 38053 38794 39442 39385 39651 39566 39186 37371 38103 36115 37253 38391 37073 35689 38942 38388 39123 37632 37701 37368 30234 39108 36042 39017 39366 37694 38112 39847 38904 39309 37413 38293 35337 38774 39935 38481 38000 39564 37855 39255 40045 36620 39192 39169 38876 37047 39913 39346 38624 39669 37230 33747 38694 37977 39748 39294 38910 39554 40277 39385 36854 26407 38090 38820 38100 36918 39550 39787 39194 40020 39567 37694 39003 37446 39850 38530 39120 39459 36027 38394 38554 39786
39857 39573 40206 40124 40049 29961 37980 39549 40051 40114 39334 31030 39575 39784 38495 39502 39614 39463 39329 40423 30529 39997 38814 40324 38386 38572 40374 39672 39889 38854 39993 39997 37839 40355 39988 40050 39300 40289 40659 40072 39423 39885 31352 37660 36607 39011 40617 39375 39712 38189 39376 39774 40182 37980 39519 32531 40212 39976 38309 40337 39983 38384 40483 39396 40027 40261 36496 39673 39705 38588 39994 38034 37643 39680 39928 36060 39146 37818 40252 40159 38071 39413 39490 40828 39681 40084 40357 39289 39922 38961 39243 39845 39284 39956 40231 39036 40467 39958 39779 30338 40045 30353 39275 35606 39345 40259 31815 40626 39175 38467 40299 40391 40203 39032 34928 39666 40544 39806 39193 30484 39965 40442 39890 38801 39146 38054 40217 38468 35050 40628 40059 39742 39538 36900 36997 39113 39939 39403 40487 39693 39837 37516 39979 39362 38003 39183 39858 39437 40293 38529 39863 38820 36912 39082 37401 39529 36188 39251 39532 39042 39669 39530 40200 39576 38325 38783 39206 38045 39540 35037 39814 40228 39606 39710 40529 39732 39120 37605 39016 39161 39951 39127 40418 38976 38909 40087 36189 38999 39391 38716 40435 40687 40007 40697 39873 39657 38694 38748 39327 39639 38550 38848 40187 40151 38872 40702 40404 39156 39733 40727 40564 40167 39539 40124 38702 39770 40193 38600 40553 32824 39810 39621 39950 39406 40428 40301 39536 40512 39869 39787 40051 39638 39776 39417 40072 38690 38825 38013 39518 40078 37937 37868 39807 36157 39415 39007 36322 40439 40053 40174 39014 39914 38254 39487 39411 39050 40035 38812 39031 35689 38661 39165 39155 39651 33279 40465 39909 40550 40338 38431 39077 40279 39936 39922 40453 39893 39401 33443 39116 37830 39519 40046 39589 39178 38941 39043 38634 39347 38938 38978 30482 40028 35042 39068 40324 38652 40167 40912 37664 39318 39958 39312 39825 39608 37996 39437 39574 39669 39599 37584 38933 39753 35287 37051 38177 40213 38866 39987 38313 33109 38656 39966 40162 33479 39514 39488 40062 40133 40137 40246 40356 39340 39964 37456 40017 39218 40844 39184 39580 36287 40094 39631 38400 36847 39233 39843 40052 35700 39734 39433 39079 38768 39241 39014 38506 38163 39297 40444 40085 39531 38743 36414 39222 39319 40350 40143 38587 37629 40649 38873 40390 38168 37270 40415 39698 40378 39496 39784 35875 40357 40196 39825 40033 40287 39431 38758 39640 39368 39480 38293 39114 38730 39928 37675 40735 39868 37217 39851 39773 39811 38179 39412 39001 39961 39880 39206 39560 37963 38854 39779 40202 38973 40439 39814 38067 39562 39574 38864 38986 39709 40049 39770 40137 39850 39907 38706 39141 37341 38617 39336 38236 37182 39418 39340 39929 38552 38693 38382 32609 39863 37341 39738 39938 38626 39178 40303 39769 39617 38423 39201 36761 39512 40453 39212 38809 40116 39003 40119 40415 37680 39882 39757 39496 38546 40173 39960 39301 40278 38093 35911 39575 39294 40313 39831 39469 40253 40600 40198 38115 29309 38975 39341 38987 38189 39786 39999 39708 40517 40237 38684 39245 38319 40277 39361 39684 40174 37492 39006 39337 40356
40390 40116 40753 40219 40616 32353 38606 40003 40485 40596 39621 33654 40293 40144 39705 40077 39986 39658 39913 40948 33013 40462 39178 40621 39247 39315 40419 40176 40298 39449 40581 40477 38717 40585 40449 40283 40011 40610 40826 40669 40145 40571 33439 38808 38287 39882 40755 40040 40168 39234 39809 40147 40354 39019 40115 34928 40811 40373 39050 40396 40164 39440 40636 39928 40482 40457 37726 40152 39900 39402 40188 38935 38540 39991 40009 37789 39843 39125 40714 40511 39156 40113 40133 40764 40086 40262 40652 40123 40396 39493 40074 40419 40108 40260 40408 40001 40773 40218 40181 32887 40505 32735 39929 37394 39861 40637 34113 40752 39967 39334 40713 40689 40545 39529 36506 40374 40537 40246 39726 32796 40268 41002 40110 39695 39532 39021 40557 39211 36660 40726 40615 40483 40172 38350 38340 39732 40329 39978 40512 40123 40295 38530 40469 39896 38978 39844 40353 40235 40628 39384 40367 39442 38502 39537 38601 39974 37878 39913 39805 39608 40284 40310 40216 39727 39212 39609 39923 38940 39971 36506 40284 40573 40271 40110 41000 40204 39493 38965 39875 39660 40220 39665 40790 39656 39936 40516 37631 39651 40071 39549 40634 40770 40338 40749 40461 40237 39561 39375 39979 40092 39511 39479 40477 40528 39545 40856 40339 39732 40104 40623 41022 40436 40090 40610 39309 40169 40444 39587 40325 34935 40461 40185 40274 39776 40461 40446 40247 41081 40208 39890 40558 40389 40133 39895 40483 39302 39540 39003 40096 40211 38919 38792 40226 37729 40065 40170 37596 40662 40508 40682 39671 40242 39142 40185 40022 39686 40403 39344 39964 37056 39839 39868 39849 40246 35240 40532 40380 40987 40657 39227 40048 40619 40470 40394 40977 40249 40009 35414 40033 38803 40220 40349 39776 39626 39719 39750 39496 40117 39512 39767 33461 40298 36959 39704 40516 39385 40541 40778 38915 39832 40194 39982 40357 40239 38865 39842 39865 40005 40276 38645 39551 40251 36729 38207 39249 40499 39367 40701 39262 35265 39475 40420 40648 35455 39874 40241 40388 40362 40690 40493 40536 39945 39939 38762 40375 39923 40922 39707 39919 37584 40437 40008 39225 38210 39845 40687 40441 37256 40100 39809 39686 39595 39736 39551 39119 39247 39914 40865 40651 40166 39366 38168 40223 39887 40921 40264 39495 38689 40514 39467 40655 38933 38741 40673 39946 40739 40159 40168 37453 40592 40862 40065 40353 40476 39845 39377 40367 39803 40042 39293 39966 39210 40168 38678 40945 40267 38410 40335 40178 40228 39116 40001 39889 40299 40544 39917 40091 39239 39296 40306 40375 40145 40720 40327 38820 40132 40001 39447 39577 40334 40592 40463 40486 40495 40400 39624 39668 38687 39368 39822 39165 38331 40223 39761 40249 39389 39517 39347 34752 40033 38533 40451 40453 39388 39604 40466 40268 40025 38917 40149 38175 39968 40760 39669 39396 40843 39791 40267 40568 38550 40372 40315 40223 39334 40562 40229 39989 40795 39013 37442 40132 39848 40783 40313 39898 40412 40921 40414 39027 31770 39731 39758 39621 39161 40475 40615 40348 40848 40350 39368 40359 39254 40416 40047 40166 40559 38801 40108 39807 40545
40652 40586 40980 40773 40714 34778 39519 40427 40524 41028 40424 35684 40423 40355 40263 40233 40469 40411 40619 40917 35097 40503 39681 40925 39884 39791 40814 40496 40677 40210 40985 40517 39434 40813 40809 40449 40515 40829 41083 40728 40550 40667 35712 39615 38866 40216 40647 40382 40574 40003 40072 40621 40660 39884 40337 36907 41244 40946 39620 40674 40529 39949 40864 40134 40877 40568 38914 40325 40271 39685 40666 39591 39441 40347 40544 38703 40181 39798 40826 40622 40059 40500 40485 41278 40677 40486 40874 40572 41049 40146 40450 40398 40269 40820 40698 40334 40688 40380 40618 34830 40586 34970 40398 38585 40086 40742 35654 40985 40639 39824 41088 40843 40792 40171 37642 40823 40539 40711 40153 34765 40680 41224 40536 40303 40231 39714 40734 39683 37750 40654 40692 40851 40678 39103 39073 40264 40756 40519 41008 40590 40724 39352 40442 40476 40042 40391 40703 40402 40958 39821 40277 39804 39331 39909 39520 40374 38767 40411 40557 40171 40640 40503 40308 40166 39517 40233 40382 39811 40498 37920 40415 40763 40653 40625 41129 40555 40071 39456 40280 40159 40544 40136 40926 39923 40080 40905 38597 40102 40528 40031 40855 40892 40547 40867 40690 40441 39975 40173 40426 40547 39854 40248 40562 40732 40068 41119 40991 40063 40707 41144 40769 40668 39928 40749 40003 40550 40564 40009 40625 36723 40923 40648 40636 40542 40641 40697 40354 41197 40613 40539 40778 40603 40652 40434 40630 40008 40043 39681 40315 40666 39395 39569 40761 38651 40437 40223 38692 40944 40757 40759 40352 40673 39890 40700 40408 40321 40762 40080 40016 38382 40351 40231 40070 40516 36834 40847 40480 40862 40817 40136 40338 40631 40876 40757 41304 40455 40464 37042 40248 39550 40546 40584 40379 40160 40061 40263 39992 40477 40281 40119 35564 40498 38297 40085 40630 39868 40830 40999 39796 40393 40817 40586 40621 40331 39659 40452 40623 40313 40375 39632 40087 40570 37884 38939 39735 40849 40006 40857 39625 36939 40128 40708 40610 37208 40423 40679 40469 40689 40801 40855 40726 40639 40426 39621 40687 40385 41275 40053 40090 38750 40669 40435 40009 38996 40351 40916 40926 38564 40628 40356 40116 39971 40203 40245 39875 39807 40265 41009 40935 40546 39977 39370 40246 40131 40734 40554 39996 39476 40614 40175 40678 39789 39418 40951 40356 40942 40440 40652 38386 40932 41015 40459 41156 40806 40191 40054 40720 40333 40534 39839 40330 39880 40329 39414 40980 40670 39286 40692 40594 40592 39588 40082 40405 40525 40746 40300 40616 39642 40083 40555 40945 40443 40859 40876 39613 40529 40527 39992 39920 40702 40662 40598 41109 40925 40535 40253 40319 39154 39710 40607 39777 38974 40559 40378 40858 40098 39878 39948 36594 40563 39080 40722 40808 39974 40170 40622 40358 40059 39797 40552 39184 40344 41155 39855 40025 40961 40188 40590 40942 39534 40537 40614 40347 40079 40921 40516 40247 40781 39693 38715 40253 40234 41003 40540 40505 40430 41048 40783 39589 33737 40361 40375 40340 39902 40582 40736 40556 40964 40613 39765 40382 39721 40704 40494 40637 40690 39373 40346 40424 40697
40877 40776 40967 41171 40808 36433 40217 40789 40834 40889 40531 37408 40680 40524 40526 40509 40708 40654 40696 40993 37162 40682 40226 40845 40253 40458 41227 40664 40977 40627 41032 40661 40071 41032 40815 41100 40610 40943 40987 40950 40622 40824 37374 40209 39849 40666 40928 40713 40728 40386 40334 40898 40957 40229 41001 37909 41001 40880 40175 40811 40431 40318 40815 40482 40759 40843 39460 40482 40705 40199 40917 40085 39979 40710 40920 39471 40462 40166 40971 41021 40245 40769 40906 41183 40943 40658 41175 40643 41075 40413 40653 41110 40742 41260 40915 40767 41133 40486 40733 36538 40842 36511 40393 39389 40365 40746 37294 40955 40766 40630 40914 40957 40725 40654 38754 41108 40993 40944 40393 36441 40987 41066 40812 40474 40331 40178 40832 40207 38910 40712 40907 40863 40998 39518 40070 40220 40639 40610 41208 40636 40978 40141 40351 40633 40138 40732 41059 40719 40924 40285 40568 40397 40037 40623 40126 40668 39357 40635 40745 40283 40918 40666 40618 40499 40076 40391 40555 40159 40862 39031 40540 40755 40758 40834 41027 41015 40375 39916 40562 40540 40654 40374 41113 40019 40476 40837 39526 40579 40599 40470 41280 41294 40718 40735 40711 40460 40416 40348 40624 40849 40402 40446 41046 41108 40537 41057 40859 40594 40962 41153 40837 40733 40594 41097 40396 40696 40805 40610 40853 37837 40911 40849 40818 40885 41013 40842 40800 41390 40520 40761 40789 40815 40985 40677 40968 40474 40320 40164 40615 40795 39998 40175 40862 39383 40831 40710 39494 40980 40870 41049 40728 40974 40118 40759 40453 40335 40647 40454 40673 39082 40482 40399 40559 40844 38098 41012 40806 41090 40924 40261 40531 40987 40878 40923 41184 40971 40862 38171 40368 39757 40994 40681 40703 40720 40611 40405 40327 40865 40246 40737 37169 40832 39428 40455 40808 40406 40767 41160 40155 40650 40537 40823 40845 40662 40116 40493 40889 40670 40697 40109 40217 40569 38996 39453 40471 41041 40801 41309 39988 38207 40380 40901 41065 38423 40715 40745 41150 41040 41026 40907 41033 40787 40803 40121 41012 40587 41224 40367 40409 39854 40952 40274 40008 39802 40630 40873 41036 39417 40786 40586 40459 40515 40330 40585 40046 40127 40673 41107 40877 40770 40635 39674 40700 40705 41134 40649 40155 39977 40708 40425 40902 40161 39941 41005 40637 41330 40590 41103 39480 40943 41101 40528 41351 41141 40671 40330 40745 40826 40675 40193 40701 40342 40509 40278 41154 40903 39864 40787 40673 40889 40227 40464 40765 40701 40889 40525 40692 40254 40329 40663 40982 40567 41126 40926 40211 40838 40905 40507 40476 40972 41020 40774 40850 40997 40957 40311 40484 39905 40391 40656 40447 39456 40832 40272 40843 40491 40202 40301 37849 40618 39725 40988 40890 40385 40377 40871 40930 40438 40186 40920 39869 40338 41265 40472 40527 41170 40728 40961 41243 40135 40662 41038 40726 40117 41053 40719 40592 41034 40190 39587 40284 40567 41126 40666 40837 40731 41386 41178 40263 35790 40420 40659 40578 40555 40996 40868 41117 40987 40989 40384 40624 39940 40975 40865 40653 40800 39989 40581 40386 40872
41060 41210 41241 41041 40909 37606 40791 40685 40750 40644 40871 38548 40710 40807 40871 40884 40948 41040 40807 41265 38316 40901 40704 41037 40757 40638 41312 40806 40932 40851 41093 41082 40286 41024 40948 41187 40922 41205 41398 41087 40840 41055 38269 40615 40072 40794 40977 40938 40830 40531 40558 41008 41360 40703 40953 39226 40837 41147 40828 41158 40808 40702 41116 41003 41029 40956 40222 40795 41081 40796 41003 40631 40348 40670 41122 40265 40682 40445 40836 40794 40532 40907 41056 41370 41066 41054 41128 40870 41092 40241 40968 41192 40721 41185 41003 40794 40984 40872 40770 38025 41223 38099 40541 39991 40787 40994 38357 41128 41135 40913 41180 41136 40974 40909 39568 41275 41173 41172 40662 37729 41222 41174 41177 40674 40629 40458 41061 40496 39363 41156 41507 41219 40925 40189 40343 40771 41282 40831 41194 40936 40903 40559 40952 40561 40314 40706 41159 40888 41159 40490 41097 40772 40395 41000 40336 40919 40109 40683 41031 40766 40973 40799 40819 40693 40615 40645 40742 40568 40867 39578 40959 41204 41120 40925 41250 41029 40804 40181 40728 40601 40792 40752 41003 40613 40848 41049 40115 41008 40776 40657 41265 41265 40872 40960 40681 40810 40678 40343 40731 41204 40899 40838 40993 41168 40682 41336 41085 40797 41118 41217 41259 41128 40790 41229 40980 40962 40903 40847 40987 38882 41045 41027 41063 41027 41048 41260 40910 41421 40844 40816 41083 40875 40900 41067 41043 40592 40775 40442 41253 41079 40487 40440 41218 39991 40759 40618 40132 41453 41233 41202 40765 40952 40437 40636 40822 40705 41008 40409 40647 39827 40570 40740 40952 40982 38938 41478 41069 41400 41068 40502 40924 40951 41318 40897 41204 40852 40882 39066 40624 40312 41147 41091 40815 40526 40678 40772 40516 41210 40633 40867 38382 40968 39809 40633 41162 40692 40928 41287 40530 40836 40905 40899 40970 41014 40556 40749 41191 40931 40827 40315 40551 40910 39785 40287 40755 40911 40741 41457 40355 39206 40485 41047 41316 39333 40943 41202 40761 41356 41294 40960 41184 40699 40861 40470 41064 40891 41366 40762 40763 39991 41165 40752 40330 40159 40369 40704 40890 40180 41140 40827 40667 40613 40524 40568 40718 40746 40519 41148 41054 41107 40797 40136 41025 40841 41269 41037 40514 40324 41024 40612 40759 40135 40509 41080 40929 41295 40809 40988 40026 41092 41435 40770 41358 41354 40866 40576 41111 41007 40864 40362 41095 40627 40775 40541 41395 40947 40369 41171 41068 40799 40483 40792 40966 40744 41183 40834 40954 40560 40695 40779 40737 40657 41014 41213 40430 40955 40768 40917 40854 40938 40977 41214 40878 41067 40895 40836 40598 40108 40715 41166 40658 40382 41118 40708 40873 40713 40304 40576 38811 40941 40547 41004 40803 40704 40786 41017 40820 40829 40384 41010 40503 40402 41271 41009 40791 41108 40524 41248 41018 40425 41167 40892 41100 40248 41148 41165 40861 41121 40573 39781 40856 40724 41171 40716 41019 40852 41175 41193 40572 37561 40722 40988 40667 40679 40942 41111 41065 41367 40884 40763 41123 40317 40990 40717 41001 40852 40257 41056 40707 40926
40994 41168 41025 41324 40825 38750 41109 40928 41036 41216 40814 39283 40643 41027 40913 41416 41034 41166 40907 41371 39181 40899 40735 41002 40877 40719 41192 40975 41043 41153 41384 40956 40655 41358 40852 41223 40856 41190 41155 40956 40823 41267 39256 40727 40343 40995 40762 40805 40747 41037 40831 40984 41300 40917 40851 39654 41137 41225 41003 41055 41214 41102 41168 41154 40940 41179 40384 41213 41150 40862 40979 40811 40610 41081 41020 40471 40961 40823 41293 40991 40820 41124 41187 41426 41382 40884 41088 40902 41137 40550 41120 41213 40970 41405 41084 41049 41335 41175 41057 39263 41156 38782 40902 40225 41031 41304 39117 41074 40959 41146 41297 41161 40788 40867 39944 41228 41256 41300 40821 38788 41362 41028 41209 41038 41151 40850 41059 40821 39935 41446 41290 40846 41145 40555 40799 41069 41120 41203 41023 41282 41050 40583 41009 40890 40798 40700 41175 40842 41045 41031 40836 40862 40645 40854 40632 41049 40499 40862 41211 40975 41047 41046 41068 40925 40728 40951 41081 41000 41108 40184 41170 41261 41191 40794 41286 41207 41057 40951 40571 40723 40850 40974 40997 41001 40940 41271 40501 40913 40877 40745 41391 41120 40875 41215 40871 40861 40720 40656 40958 41391 41236 40886 41320 41504 41007 41386 40951 40811 41291 41121 41050 41012 40876 41105 41275 40866 41271 40709 41165 39775 41305 41111 40895 41223 41362 40839 40989 41250 41080 40939 41107 41295 41240 41063 41136 40919 41073 40799 40885 41436 40581 41094 41290 40609 40706 40753 40499 41163 41080 41282 40999 41196 40807 41075 41167 40797 41151 40950 40659 40243 40904 40687 41118 41081 39827 41405 41426 41367 41176 40793 41129 41133 41293 41107 41270 40939 40857 39788 40765 40491 40869 40931 40907 40819 40952 40960 40801 41114 41073 41118 39078 41163 40438 40917 41042 40900 41059 41198 40707 40858 40983 40948 40866 40792 40771 40866 40951 40824 40847 40389 40836 40819 40368 40637 40889 40989 41098 41383 40685 40064 40992 41138 41431 39842 41162 41036 40916 41123 40925 41137 41405 40893 41011 40489 41073 41053 41438 41135 41019 40299 41204 40939 40584 40287 40904 41020 40885 40813 41063 41128 40824 40876 40890 41090 40527 40975 40874 41255 41032 40772 41006 40405 41046 40975 41417 40900 40756 40520 41102 40999 41031 40583 40686 41133 41238 41155 40949 41265 40439 41044 41604 40948 41224 41632 41010 41101 41183 41036 41038 40486 41102 40518 40837 40559 41467 41378 40414 41104 40982 40998 40781 40802 41180 40989 41052 41026 40971 40641 40935 41025 41027 40780 41203 41215 40783 41099 41149 40973 40749 41266 41021 41236 41031 41157 41060 41059 40838 40335 40864 41358 41010 40583 41109 40765 40917 40989 40612 40889 39796 41110 40451 41039 40926 40975 40768 41079 41093 41230 40789 41179 40744 40769 41189 40908 40700 41150 40952 41021 40983 40640 41157 40980 41331 40628 41296 41374 41139 41257 40850 40134 40670 41122 41296 41026 41050 41006 41316 41183 40658 38662 40952 41389 40753 40804 40839 41336 40975 41108 41129 40846 41211 40832 40896 41137 41310 40872 40886 40971 40877 41193
41006 41227 41123 41555 41124 39260 40861 41032 41324 41123 40891 39914 40985 41235 40991 41194 40830 41253 41288 41475 40008 40921 40982 41339 41117 40993 41013 41044 41060 41208 41243 40913 41317 41521 41081 41251 40893 40998 41403 41273 41067 41261 39816 41031 40913 40906 41177 40951 41079 41168 41099 41200 41209 41010 40737 40512 41346 41406 40817 41057 41164 41131 41025 41191 41224 41295 40727 41156 41061 40668 41237 40851 40851 40797 41133 40758 40849 40849 41384 41151 40905 41279 41349 41242 41041 40603 41354 41034 41210 41101 41051 41487 41308 41447 40999 41131 41192 41338 41434 39828 41217 39541 40940 40702 41356 41336 39718 41559 41099 41256 41546 41180 40905 41017 40223 41234 41338 41185 40880 39767 41399 41603 41364 41075 41330 40841 41079 41301 40571 41287 41224 40946 41090 41011 40821 41313 41315 41102 41112 41264 41127 40948 41331 41265 40891 41233 41025 41039 41126 41123 41097 40790 40860 40932 40603 41137 40668 41155 41168 41175 41189 40932 41598 41060 40982 41045 41025 41174 40959 40450 41297 41030 41046 41021 41195 41083 41038 40852 41075 40796 40983 41061 41307 41055 41204 41151 40951 40967 40963 40902 41335 41105 40952 41120 40981 40838 40865 40866 41316 41504 40959 40921 41353 41654 41205 41363 41082 40793 41283 41426 41400 41129 41123 41189 41306 40930 41203 40918 41007 40161 41491 41105 41270 41155 40976 41306 41470 41272 41014 40888 41459 41287 41143 41219 41072 41063 41049 40953 40832 41339 41029 41124 41121 40890 41020 40996 40569 41681 41327 41328 40944 41147 41082 41084 40920 40855 41504 41007 41231 40680 40960 40948 41096 40943 40211 41340 41403 41371 41411 40988 41230 41123 41444 41255 41386 41130 40947 39980 40887 40400 41305 41014 40960 41237 41136 41239 40980 41142 41017 41019 39686 41149 40617 40980 40984 41058 41341 41131 40964 41059 41078 40673 40821 40951 41041 40897 41249 40994 41194 40799 40760 41097 40444 40886 40929 41239 41223 41281 40752 40247 41132 41020 41295 40427 41119 41411 41074 40774 41199 41241 41249 41146 41247 40965 41177 41101 41381 40997 41138 40770 41134 41228 40654 40419 41257 41146 40616 40796 41189 41314 40961 41258 40891 40919 40822 41059 40945 41237 41089 40937 41186 40543 41469 41278 41420 41144 40864 40967 41416 41210 41029 40802 40990 41307 41557 41241 40862 40889 40619 41244 41396 40894 41619 41262 41313 41044 41096 40969 40925 40865 41161 40922 41019 40720 41459 41087 40707 41379 41049 41347 41210 41099 41226 41239 41340 41406 41110 40932 40964 41011 41158 41074 40972 41139 40801 41188 41167 41025 40987 41320 41292 41245 41316 41506 41000 40927 41168 40687 41102 41152 40731 40692 41626 41177 41343 40796 40902 40843 40036 41306 40578 41083 41172 40909 41175 41152 41027 41139 41089 41010 40994 41149 41472 41128 40762 40973 40993 41175 41084 40618 41155 41186 41535 40983 41296 41425 41368 41455 40850 40368 41163 41183 41514 41186 41290 41104 41352 41094 40919 39026 40958 41150 40937 40959 41054 41180 41229 41199 41141 40890 41032 40752 40987 41027 41204 40860 40771 41092 40739 41382
40960 41131 41189 41145 40951 39578 40996 41310 41261 40950 40759 40213 40836 41336 41432 41619 40941 41330 41274 41370 40353 41224 41220 41446 40876 41121 41098 41562 41402 41170 41252 41093 41113 41484 40975 41274 41180 41457 41590 41382 41080 40928 40446 41133 40958 41191 41399 41180 41467 41109 41331 41074 41488 40881 41384 40768 41412 41397 41074 41207 41077 41265 41084 41245 41050 41227 40811 41094 41035 40891 41220 40866 40865 41039 41237 40851 41141 40912 41427 41043 40745 41099 41438 41223 41251 40964 41294 40951 41298 40924 41152 41162 41395 41271 41332 41220 41200 41313 41433 40480 41226 40105 41003 40874 41198 41346 40238 41498 41232 41319 41263 41432 41169 40998 40343 41312 41563 41098 41274 40110 41550 41374 41470 41145 41084 41142 41556 41227 40640 41313 41549 40883 41248 41001 40960 41260 41265 41429 41237 41438 41279 40790 41319 41126 41110 41426 41067 41160 41326 41211 41309 41015 40715 41020 41006 41185 40653 41518 41235 41458 41265 41160 41340 41072 41231 41393 41113 41206 41131 40801 41348 41309 41341 41151 41411 41550 41286 41120 41249 40779 41016 40988 41246 41064 41204 41177 41015 41109 41071 41149 41253 41152 40984 41271 41052 41123 41114 41059 41255 41281 40910 41079 41093 41549 41115 41605 41245 41140 41228 41395 41404 41064 41419 41385 41312 41154 41497 41145 41263 40451 41348 41250 41072 41261 40904 41409 41476 41055 41158 41253 41507 41323 41206 41430 41198 41427 41288 41149 41086 41206 41151 41348 41348 40832 40955 41218 40871 41644 41250 41422 41169 41305 40972 41461 41182 41173 41183 41209 41341 40888 41069 41028 41169 41240 40486 41282 41289 41396 41428 41110 41216 41479 41480 41096 41364 41065 41430 40686 41102 41025 41357 41345 41169 41302 41191 41249 40829 41180 41192 41126 39997 41087 40977 41374 41047 41024 41390 41265 40933 41267 41213 40999 40833 40996 40968 41331 41493 40923 41392 40883 40951 41087 40510 41133 41130 41263 41117 41433 41086 40408 41230 41180 41174 40694 41260 41363 41085 41078 41592 41594 41512 41059 41103 41091 41347 41154 41267 41207 41405 40824 41079 41281 41016 40608 41012 41401 41219 41211 41283 41319 40919 41290 40899 41040 40937 40964 40990 41445 41207 41038 41252 40767 41308 41086 41460 40932 40915 41023 41590 41378 40970 41062 40953 41022 41306 41375 41057 41121 40627 41403 41439 40898 41352 41098 41298 41098 41346 41117 41072 41062 41344 40983 41102 40765 41387 41148 41135 41462 41272 41418 40946 41483 41143 41007 41296 41147 41395 40997 41388 40924 41292 41328 41334 41160 40899 41298 41363 41037 41315 41797 41386 41183 41543 41495 41167 40965 41375 41053 41324 41220 40982 40932 41386 41173 41387 41084 41255 40977 40602 41313 40847 41159 41227 41037 41025 41372 41332 41084 41069 41235 41149 41379 41393 41249 41243 41004 41290 41109 41194 41012 41182 41089 41564 41090 41395 41447 41533 41395 41289 40504 41115 41131 41238 41223 41417 41118 41312 41531 41205 39798 41033 41363 41186 41247 40911 41028 41174 40906 41153 41198 41205 41260 41098 41362 41426 40974 41022 41225 41276 41574
41251 41187 41248 41346 41063 40355 41212 41555 40995 41051 41278 40615 40944 41187 41368 41355 41318 41328 41287 41343 40498 41103 41251 41440 40837 41314 41504 41620 41201 41392 41150 41190 41297 41354 41195 41330 41184 40971 41205 41204 41093 41262 40653 41194 41333 41259 41115 41267 41202 41269 41399 41328 41192 41219 41390 40872 41613 41555 41050 41303 41219 41362 41300 41205 41236 41303 40863 41405 41134 41040 41238 40895 40927 41200 41198 41039 41178 40707 41409 41406 41104 41340 41512 41253 41438 41202 41379 41393 41047 41133 40877 41267 41306 41234 41657 41429 41343 41090 41629 40579 41470 40298 41350 41126 41188 41683 40634 41612 41345 41162 41348 41697 41244 41297 40782 41408 41546 41386 41192 40546 41601 41210 41360 41431 41528 41468 41042 41188 40770 41562 41448 41249 41198 41035 41164 41351 41052 41612 41107 41389 41462 41080 41322 41207 41100 41157 41119 41318 41555 41159 41223 41012 41136 41048 41155 41358 40977 41176 41193 41316 41077 41572 41275 41068 41191 41335 41167 40998 41244 41052 41465 41334 41418 41128 41464 41362 41246 41248 41267 41085 41156 41120 41400 41125 41238 41215 41101 41004 41058 41265 41340 41169 40983 41310 41366 41185 41285 41023 41130 41378 41295 41126 41397 41284 41199 41337 40982 41171 41473 41387 40831 41035 41280 41346 41251 41233 41290 41135 41125 40734 41290 41589 41345 41089 41190 41089 41579 40977 41349 41087 41216 41294 41587 41293 41508 41396 41385 41427 40966 41561 41099 41336 41155 40958 41170 41318 41027 41258 41125 41358 41198 41206 41323 41095 41380 41233 41289 41355 41205 40942 40971 40902 41063 41237 40882 41528 41528 41348 41155 41407 41404 41546 41590 41372 41163 41105 41348 40931 41129 41001 41439 41299 41172 41234 41118 41690 40981 41128 41084 41321 40553 41062 41102 41346 41030 41136 41330 41463 41176 41359 41046 41263 41088 41195 41126 41470 41449 40870 41218 41122 40940 41083 40738 41007 41107 41197 41131 41291 40873 40786 41021 41337 41341 40957 41268 41609 41324 41095 41525 41439 41339 41026 41056 41313 41619 41505 41492 41458 41375 41000 41143 41217 41300 40795 41240 41335 41313 40855 41513 41508 41239 41302 40949 41114 41212 41267 41108 41320 41156 41341 41372 40996 41511 41235 41622 40989 41091 41029 41479 41570 41088 41179 41259 41273 41305 41339 41020 41335 40696 41262 41356 41284 41611 41432 41248 40989 41358 41153 41200 41238 41284 41417 41165 41060 41299 41290 41343 41300 41144 41251 41032 41441 41561 41303 41397 41086 41383 41453 41420 41065 41119 41152 41301 41298 41258 41141 41169 41311 41351 41118 41539 41025 41536 41493 41046 41116 41227 41117 41223 41451 41039 41289 41371 41384 41381 41438 41254 41006 40750 41537 40640 41497 41365 41329 40927 41410 41447 41173 41186 41345 41133 41301 41511 40948 41035 40925 41224 41248 41143 41161 41630 41155 41473 41190 41366 41366 41185 41134 41352 40807 41140 41291 41085 41211 41634 41120 41425 41633 41104 40544 41262 41584 40880 41189 40958 41004 41331 41189 41313 41429 41227 41228 41063 41292 41241 41053 41274 41354 41184 41318
41253 41151 41348 41214 40931 40814 41175 41320 41246 41305 41165 40695 41221 41384 41432 41307 41126 41295 41359 41255 40874 41427 41157 41212 41075 41236 41538 41291 41510 41729 41483 41435 41349 41356 41749 41154 41099 41182 41399 41310 41048 41294 40833 41088 41159 41025 41479 41394 41199 41302 41539 41337 40930 41218 41379 41058 41242 41456 41159 41293 41491 41317 41469 41214 41231 41545 40985 41254 41315 41017 41301 41276 40900 41187 41322 41347 40786 40931 41364 41304 40984 41299 41610 41273 41415 41316 41387 41234 41514 41120 40994 41121 41404 41280 41399 41428 41146 41318 41307 40932 41407 40465 41274 41192 41327 41710 40840 41512 41305 41296 41231 41378 41321 41530 40861 41305 41444 40927 41414 40588 41602 41148 41266 41400 41224 41234 41543 41384 40895 41109 41443 41245 41261 41102 41057 41293 41510 41444 41200 41501 41244 41223 41289 41229 41251 40922 41450 41317 41409 41185 41120 41315 40963 41105 41055 41408 40807 41329 41032 41477 41146 41351 41240 41250 41562 41603 41353 41245 41348 41343 41313 41411 41572 41071 41453 41244 41165 41181 41003 41463 41152 41268 41136 41112 41399 41304 41160 41400 41090 41144 41496 41364 41281 41173 41232 41309 41248 41354 41268 41246 41335 41157 41399 41340 41541 41314 41425 41152 41163 41236 41170 41278 41261 41479 41138 41272 41272 41051 41501 40920 41490 41430 41462 41138 41242 41097 41349 41322 41176 41307 41076 41303 41662 41586 41526 41340 41294 41209 41069 41187 41055 41449 41276 40795 41268 41347 41102 41105 41098 41225 41079 41243 41273 41094 41272 41144 41122 41636 41036 40878 41194 41158 41161 41380 41067 41363 41287 41296 41377 41421 41300 41445 41441 41410 41315 41284 41282 41138 40983 41065 41366 41562 41174 41294 41010 41466 41214 41346 41219 41254 40824 41034 41038 41424 41107 41394 41101 41373 41297 41263 41123 41154 41258 41189 40992 41442 41544 40970 41364 41084 41332 41238 41020 41060 41240 41327 41138 41359 41057 40830 41141 41309 41290 40866 41461 41619 41462 41329 41476 41403 41078 41131 41072 41211 41660 41427 41397 41444 41136 41060 41183 41268 41190 40807 40889 41361 41215 40992 41672 41356 41218 41431 40854 41392 41180 41133 41014 41123 41420 41313 41347 41149 41283 41287 41491 41036 41170 40978 41372 41514 41251 41064 41352 41610 41368 41428 41448 41299 41077 41322 41463 41233 41311 41299 41391 41280 41505 41090 41411 40843 41320 41152 41239 40691 41300 41222 41207 41535 41323 41428 41232 41316 41442 41066 41555 41246 41113 41374 41236 41205 41338 41059 41599 41487 41391 41321 41343 41310 41373 41419 41461 41405 41112 41569 41020 41260 41633 41478 41127 41500 40959 41263 41527 41118 41340 41316 41409 41292 40849 41257 40943 41284 41415 41437 41070 41100 41520 41301 41271 41085 41333 41409 41341 41148 41317 41101 41258 41658 41124 41256 41552 41236 41311 41139 41321 41692 41435 41123 41157 40949 41122 41443 41351 41068 41351 41436 41412 41562 40980 40652 41255 41688 41197 41144 41106 41249 41267 41157 41433 41405 41607 41480 40865 41129 41287 41236 41546 41371 41196 41376
41312 41000 41452 41323 41295 40763 41425 41357 41597 41172 41572 41008 41112 41397 41337 41381 41393 41252 41386 41669 40654 41266 41183 41357 41343 41451 41313 41423 41230 41305 41377 41558 41399 41451 41400 41289 41266 41291 41162 41248 41418 41462 41150 41519 41196 41286 41462 41293 41538 41468 41143 41093 41060 41187 41334 40950 41540 41580 41385 41663 41499 41518 41456 41287 41166 41705 41097 41119 41050 41204 41327 41171 41018 41189 41041 41207 40977 41013 41404 41112 41517 41488 41660 41400 41383 41117 41270 41259 41453 41265 40860 41361 41373 41451 41656 41472 41175 41471 41248 41123 41339 40583 41371 41153 41136 41631 41089 41662 41377 41304 41494 41582 41483 41291 41049 41178 41379 41280 41360 40521 41531 41236 41519 41538 41668 41471 41674 41129 41144 41195 41238 41325 41583 41476 41215 41382 41354 41501 41174 41583 41549 41299 41326 41265 41268 40975 41204 41281 41552 41180 41439 41483 41136 41326 41155 41126 40975 41267 41264 41572 41187 41542 41424 41029 41679 41256 41217 41156 41497 41180 41154 41180 41562 41047 41485 41537 41125 41094 41300 41593 41091 41412 41220 41187 41240 41624 41329 41499 41248 41429 41259 41403 41253 40966 41283 41314 41459 41114 40932 41330 41369 41102 41473 41401 41171 41500 41779 41129 41426 41311 41253 41349 41190 41662 41200 41102 41284 41308 41350 40987 41399 41420 41466 41312 41184 41267 41203 41184 41360 41158 41329 41430 41349 41154 41379 40984 41193 41251 41434 41352 41498 41159 41434 41383 41360 41210 41164 41427 41320 41177 41322 41080 41367 41417 41223 41416 41532 41570 41173 41271 41227 41227 41087 41092 41150 41340 41445 41427 41262 41295 41427 41313 41606 41555 41379 41245 41383 40939 41210 41497 41438 41537 41208 41305 41320 41535 41071 41366 41176 41417 40949 41254 41117 41331 41177 41282 41233 41286 41279 41568 41371 41188 41375 41385 41274 41361 41276 41233 41411 40985 41296 41602 41161 41046 41394 41553 41334 41041 41254 40981 41344 41278 41484 40925 41403 41655 41084 41243 41353 41495 41390 41102 41276 41268 41581 41498 41385 41728 41226 41233 41433 41118 41289 41054 41307 41352 41536 41183 41594 41211 40956 41339 40703 41165 41379 41324 41097 41624 41463 41410 41593 41246 41069 41206 41614 41342 41205 41050 41677 41427 41211 40980 41527 41431 41481 41667 41396 41514 40860 40970 41824 41298 41310 41112 41518 41340 41273 41086 41217 41212 41238 41115 41266 40864 41389 41470 41029 41385 41291 41498 41188 41374 41345 41296 41387 41403 41013 41397 41227 41234 41379 41161 41196 41245 41368 41204 41302 41554 41364 41266 41034 41193 41056 41305 40911 41313 41687 41544 41220 41282 41356 41211 41386 41298 41271 41344 41279 41166 40997 41427 41036 41191 41688 41471 41132 41241 41876 41318 41424 41296 41387 41326 41473 41316 41480 41228 41531 41402 41162 41424 41332 41317 41428 41233 41197 41621 41448 41369 41229 41141 41507 41187 41283 41238 41149 41293 41257 41465 41385 40882 41402 41494 41136 41387 41127 41354 41192 41144 41346 41504 41397 41534 41392 41136 41161 41202 41274 41195 41188 41437
41362 41070 41683 41729 41492 40980 41351 41155 41253 41398 41303 41049 41265 41263 41321 41400 41276 41644 41429 41670 40725 41206 41089 41325 41155 41397 41179 41033 41144 41506 41121 41515 41681 41399 41409 41350 41459 41210 41205 41522 41517 41532 41065 41489 41309 41274 41393 41141 41588 41222 41443 41326 41062 41193 41255 41078 41142 41450 41353 41632 41487 41589 41345 41365 41289 41369 41026 41277 41414 41281 41314 41411 41156 41258 41249 41036 41262 40848 41269 41292 41264 41576 41585 41210 41430 41207 41481 41622 41526 41386 41346 41548 41524 41134 41551 41630 41117 41375 41408 41001 41534 41191 41303 41144 41329 41308 41073 41355 41462 41374 41438 41541 41736 41522 41315 41264 41355 41516 41485 41039 41338 41408 41485 41573 41336 41270 41788 41220 41159 41460 41414 41046 41451 41238 41065 41466 41397 41661 41046 41382 41066 41489 41437 41429 41411 41250 41233 41485 41703 41197 41480 40995 41130 41163 41186 41386 40995 40970 41410 41649 41215 41210 41204 41027 41347 41620 41435 41214 41719 41246 41247 41211 41248 41130 41604 41655 41604 41384 41495 41536 41080 41287 41332 41308 41353 41312 41196 41255 41302 41479 41413 41537 41437 41007 41058 41218 41249 41255 40996 41374 41393 41044 41310 41364 41074 41286 41404 41253 41538 41409 41279 41268 41008 41380 41168 41406 41422 41333 41419 41067 41509 41496 41299 41173 41310 41718 41400 41543 41365 41522 41365 41355 41115 41417 41306 41076 41506 41325 41410 41265 41344 41150 41389 41168 41309 40997 41092 41319 41555 41654 41253 41224 41293 41294 41303 41632 41267 41205 41355 41251 41226 41197 41145 41162 41124 41421 41439 41334 41444 41499 41394 41115 41595 41600 41340 41231 41388 41293 41015 41172 41452 41494 41566 41344 41550 41457 41026 41161 41424 41394 41015 41127 41391 41431 41164 41357 41287 41461 41162 41488 41099 41283 41338 41357 41495 41538 41326 41346 41270 41239 41171 41489 41152 41096 41646 41649 41405 41347 41221 41171 41333 41380 41486 41077 41203 41666 41336 41248 41310 41569 41378 41327 41384 41463 41689 41354 41401 41616 41332 41266 41369 41010 41252 41032 41357 41564 41412 41265 41596 41542 41375 41469 41041 41300 41262 41250 41012 41577 41439 41472 41495 41058 41373 41273 41713 41350 41085 41334 41725 41218 41225 41003 41205 41470 41188 41661 41451 41403 40812 41346 41448 41119 41342 41166 41482 41411 41340 41050 41329 41368 41479 41206 41210 41041 41351 41187 41403 41500 41129 41279 41109 41401 41360 41236 41360 41673 41313 41265 41170 41279 41512 41170 41309 41188 41030 41094 41366 41594 41310 41518 41484 41297 41255 41634 40950 41317 41213 41717 41298 41378 41292 41130 41611 40982 41662 41342 41342 41178 41408 41298 40945 41543 41362 41497 41113 41079 41573 41477 41367 41095 41266 41355 41371 41483 41420 41119 41594 41178 41290 41441 41239 41307 41265 41152 41177 41164 41380 41254 41190 41267 41424 41454 40854 41192 41273 41205 41379 41383 41215 41172 41534 41511 41381 41197 41539 41761 41317 41233 41402 41539 41140 41164 41289 41225 41093 41315 41530 41293 41173 41473
41343 41095 41467 41556 41392 41202 41146 41449 41362 41299 41229 41302 41173 41463 41279 41415 41075 41333 41291 41457 41090 41364 41299 41329 41203 41637 41232 41394 41248 41535 41399 41597 41609 41211 41341 41210 41550 41347 41220 41339 41558 41598 41387 41444 41314 41250 41423 41249 41616 41212 41439 40992 41326 41496 41376 41302 41321 41292 41561 41503 41288 41270 41465 41010 41415 41178 41486 41436 41231 41289 41322 41278 41286 41172 41604 41285 41155 41342 41502 41140 41246 41192 41468 41317 41180 41307 41309 41453 41217 41191 41340 41630 41843 41394 41463 41676 41239 41386 41523 41006 41280 40978 41457 41109 41353 41377 40971 41267 41327 41191 41404 41457 41646 41656 40986 41323 41197 41365 41543 41290 41303 41262 41316 41596 41291 41381 41420 41353 41162 41556 41434 41065 41335 41413 41083 41269 41386 41373 41222 41355 41130 41472 41165 41050 41347 41237 41187 41366 41472 41169 41460 41312 41484 41427 41425 41601 41249 41183 41377 41691 41331 41374 41482 41360 41254 41439 41505 41469 41399 41226 41318 41406 41106 41377 41317 41610 41484 41148 41313 41393 41204 41303 41285 41389 40998 41606 41107 41249 40965 41374 41528 41461 41149 41105 41303 41521 41198 41557 41152 41517 41535 41088 41591 41595 41209 41397 41369 41453 41424 41533 41342 41219 41170 41357 41492 41332 41592 41455 41412 41099 41468 41490 41336 41130 41456 41527 41078 41412 41152 41215 41067 41387 41152 41690 41350 41042 41582 41304 41678 41183 41212 41068 41309 41111 41249 41215 41477 41311 41297 41378 41365 41260 41111 41215 41478 41587 41575 41368 41400 41398 41456 41230 41392 41414 41319 41337 41682 41284 41365 41512 41329 41083 41307 41721 41494 41417 41291 41346 41200 41291 41498 41804 41662 41111 41476 41389 41065 41234 41418 41074 41359 41318 41233 41411 41171 41368 41404 41415 41180 41569 40948 41331 41527 41372 41441 41494 41486 41355 41171 41206 41405 41478 41095 41474 41680 41372 41487 41342 41403 41337 41467 41379 41660 41119 41077 41202 41354 41270 41248 41823 41546 41533 41241 41234 41565 41133 41337 41450 41629 41302 41685 41342 41393 41218 41379 41457 41516 41067 41451 41403 41433 41654 41379 41234 41470 41448 41155 41575 41307 41592 41348 41185 41325 41328 41347 41143 41437 41417 41375 41366 41543 41268 41411 40774 41137 41681 41460 41620 41259 41379 41501 41314 41107 41197 41530 41206 41723 41291 41179 41281 41333 41373 41519 40957 41349 41099 41367 41437 41590 41129 41218 41272 41459 41087 41410 41590 41036 41176 41377 41536 41506 41316 41436 40957 41238 41401 41309 41734 41570 41726 41574 41294 41192 41586 41353 41222 41346 41547 41599 41306 41524 41325 41569 41309 41473 41490 41272 41335 41040 41474 40941 41314 41601 41311 41003 41529 41546 41558 41401 41358 41324 41497 41595 41168 41656 41408 41433 41452 41356 41425 41201 41346 41629 41653 41506 41327 41461 41266 41278 41329 41353 41479 41098 41350 41108 41313 41098 41470 41196 41452 41482 41458 41379 41302 41369 41434 41330 41063 41543 41550 41154 41474 41375 41442 41177 41251 41410 41528 41030 41174
